ply
format ascii 1.0
comment Author: CloudCompare (TELECOM PARISTECH/EDF R&D)
obj_info Generated by CloudCompare!
element vertex 1850
property float x
property float y
property float z
end_header
-47.8474 90.8566 60.2607 
53.3457 10.1676 -24.3562 
-64.245 196.988 99.2215 
-29.6742 154.826 134.873 
-5.68562 131.002 -158.838 
-0.597108 225.338 68.375 
-63.8398 196.988 66.5835 
-4.94853 11.9918 -72.343 
-39.8512 151.192 -136.771 
5.94524 257.83 135.568 
-35.4897 1.44451 86.1083 
-44.2128 186.084 21.7009 
-64.0263 197.715 99.2215 
7.39911 206.575 153.741 
-44.2128 12.7798 177.003 
0.856755 243.117 176.276 
-7.86639 246.394 205.353 
-42.0382 95.9451 60.6943 
-63.8398 197.7 -18.5408 
21.9464 122.841 -73.0604 
-63.8656 197.715 -92.6875 
23.3915 26.7777 -19.9947 
-10.0472 37.7909 -120.895 
-0.597117 98.8529 -136.322 
17.1479 201.35 120.302 
-47.8474 210.073 -95.4946 
-18.8455 223.085 113.952 
-46.8013 221.704 -65.0642 
-41.4895 143.731 -42.8902 
-0.597113 29.0678 -35.0244 
16.8492 55.9641 23.4823 
-21.678 183.176 111.429 
-64.173 198.442 -20.7216 
-9.32026 80.6796 -84.9677 
-63.8398 198.378 -91.9605 
-28.9473 122.841 -25.0651 
-64.0631 199.169 97.7676 
-63.8398 199.169 98.3822 
-46.9521 208.619 128.299 
-14.1357 262.999 71.3829 
-63.9343 198.859 65.3219 
-47.3091 196.598 41.7755 
-17.3165 256.596 150.834 
-63.8398 199.156 -21.4485 
-63.8398 199.169 -21.4749 
-8.84417 198.567 169.703 
-64.5514 199.169 -89.0528 
6.66009 66.868 -59.2488 
-31.1281 84.2258 -105.045 
-34.7627 90.1297 -107.965 
-41.3051 207.259 -113.041 
6.67217 260.958 167.946 
-4.23176 262.412 75.5182 
60.4648 8.71379 138.212 
56.2231 94.4913 -93.4144 
-42.032 0.796714 61.4212 
40.0174 65.4142 -163.926 
-30.4012 183.176 160.809 
9.57988 202.28 146.472 
-63.8862 199.896 -89.0528 
-63.8398 199.896 -89.1737 
-64.216 200.623 97.7676 
4.75037 16.078 -31.969 
-63.9736 200.272 64.3884 
-64.5547 200.565 64.4999 
-45.0201 152.645 64.329 
-63.8398 200.155 -23.6293 
-63.8398 200.531 -24.3562 
-48.1372 36.7136 142.59 
-22.405 226.94 18.5325 
-48.1496 218.796 -76.695 
-39.8512 63.1731 -1.09456 
-43.4859 180.269 -128.228 
-28.9473 217.878 159.557 
28.4671 42.8262 -75.7691 
64.0995 7.25994 136.833 
-15.2364 151.919 -70.1527 
51.7417 73.4104 -99.2047 
2.87612 6.17411 -76.9277 
-24.5857 211.236 -77.422 
24.6302 63.2334 -79.6028 
-41.3051 226.425 -44.7102 
-13.124 189.719 -167.561 
-63.8398 201.464 -25.8101 
37.2031 25.7455 137.749 
40.8378 23.4202 96.3138 
38.1014 82.1335 -154.476 
-23.8588 194.186 -158.838 
-7.13947 37.8975 -123.945 
-22.1844 130.111 -126.126 
-63.8631 202.804 -83.9643 
-6.41255 110.5 -97.049 
-64.1026 203.069 62.8221 
-13.6288 8.96385 71.101 
32.6872 25.4331 91.9522 
-22.405 67.5949 -31.5142 
-36.9435 191.206 12.7171 
-18.314 78.4989 -102.864 
43.7455 54.3123 -118.857 
-37.6704 167.836 -169.015 
-40.5782 11.4373 -96.3221 
-63.8398 203.391 -83.2374 
-39.117 214.507 141.399 
-13.6818 145.318 -147.207 
-4.62452 93.7643 177.73 
11.7607 193.034 214.803 
-63.8398 203.58 -28.7178 
3.07306 196.988 79.5944 
28.48 43.6063 39.8005 
52.0769 19.6177 49.0635 
-28.0131 119.375 56.7556 
-63.8398 204.984 99.8462 
-0.216975 241.2 191.408 
-64.233 204.874 61.9878 
-10.7741 165.73 -62.9254 
-63.8398 204.544 -30.1717 
19.0299 89.5536 166.099 
-45.6666 29.0678 -30.1825 
30.1235 59.5988 155.195 
-10.0472 261.834 147.199 
-42.032 159.369 33.0711 
8.85295 32.9134 171.914 
-20.9511 162.096 -150.128 
11.7606 54.499 -110.134 
31.3877 117.753 -89.3878 
-32.9433 223.486 129.795 
55.4785 34.1563 73.779 
-14.9492 270.46 60.627 
-64.438 205.711 -74.5143 
15.495 255.142 168.28 
-47.8474 171.658 20.7133 
6.11898 60.3257 -136.303 
-6.41254 106.849 171.961 
-46.3936 191.9 43.4697 
-45.3308 183.052 107.219 
-48.2566 212.254 -17.087 
-45.6666 17.2845 133.387 
59.7379 31.2486 88.5965 
-16.5895 218.069 38.6341 
-63.8398 206.044 -75.2412 
-63.8398 205.732 -75.9681 
14.723 206.438 175.549 
8.85294 39.219 -161.746 
-43.4859 43.6119 12.7171 
-27.4934 238.423 182.79 
20.7158 93.0374 -170.469 
-18.0434 206.438 -30.7808 
-17.3165 130.111 80.7702 
38.3261 2.89837 -105.045 
-18.7703 181.723 183.032 
-42.7589 161.369 121.7 
-18.2176 160.642 -122.492 
57.5571 26.887 140.305 
-63.962 207.892 -44.7102 
-3.26386 188.242 89.9056 
-64.0421 207.892 -70.8796 
30.4909 57.499 -85.4097 
21.2107 0.590889 -78.8758 
-63.8398 208.619 99.9848 
-32.5819 4.5674 130.479 
-64.0534 208.199 60.7093 
-12.228 189.864 131.933 
50.514 29.7947 57.0597 
18.0173 115.572 148.653 
-15.1357 195.233 -12.7254 
-63.8398 208.619 -49.595 
-48.5744 209.867 -94.1413 
-38.5492 130.381 -61.2306 
-64.4079 208.619 -56.3411 
40.1108 52.3295 -164.584 
-64.0081 208.619 -58.5219 
-64.0469 208.619 -59.2488 
-30.4012 243.649 61.4212 
-33.3558 10.1676 -141.392 
-10.7741 252.48 47.6096 
-23.0035 222.96 25.7505 
25.6622 25.4331 19.2594 
-63.8398 207.969 -71.6065 
-28.2204 183.552 163.191 
-5.41192 176.634 -21.4485 
31.2857 204.76 178.863 
-26.0574 220.977 160.283 
-36.9435 145.312 138.476 
-63.8398 208.839 -57.7949 
0.0772022 67.5949 -166.107 
11.7607 54.5543 175.549 
-14.4642 264.705 72.5216 
-21.9995 202.016 46.1753 
-23.8588 68.3219 -4.85868 
-64.5194 212.254 99.9484 
18.6932 236.242 171.187 
-63.8398 212.254 60.383 
-12.9624 62.5065 -93.4144 
-9.32026 39.5266 -129.761 
-0.892251 207.892 201.718 
-36.2249 196.988 2.5401 
-23.01 223.884 164.645 
-45.6666 122.536 44.7019 
-63.8398 218.796 100.155 
-63.8398 218.796 61.1149 
55.2802 51.6025 -85.4182 
-3.1229 247.146 74.506 
-4.59292 118.48 -94.8682 
-63.8398 220.25 101.032 
-30.2915 236.969 158.83 
-63.8398 220.53 101.402 
-3.79297 154.099 -88.3259 
2.11692 21.7985 27.2556 
-14.5109 248.6 181.364 
6.67217 90.8566 173.733 
-13.6818 135.926 -137.722 
-5.83364 143.922 -18.5408 
-34.7627 279.266 89.0445 
0.129819 164.276 107.141 
-18.7789 167.184 -185.007 
0.856754 252.077 158.83 
-63.8398 224.611 110.406 
-63.8398 224.248 109.398 
-2.05097 16.71 -153.02 
-2.7779 101.036 47.6096 
42.8605 11.6215 -97.049 
24.9546 101.761 131.933 
-35.2838 153.545 41.5774 
3.03753 251.508 158.484 
16.1222 81.3771 86.8637 
-44.4147 176.111 43.0422 
-63.9825 227.519 113.76 
-47.1205 243.684 139.203 
-63.8398 227.519 63.2153 
-13.5552 90.8566 -153.022 
-11.501 188.265 -187.777 
-5.00257 194.08 58.5135 
-40.1366 166.457 -163.926 
26.2992 247.049 184.999 
-42.5055 191.069 111.177 
-28.534 142.469 41.0673 
33.5685 206.411 184.999 
-63.8398 228.996 112.306 
-14.4087 164.075 64.329 
-63.8398 229.7 63.9809 
-6.73862 193.353 -64.3373 
-64.0857 230.427 110.125 
-28.9473 202.804 -10.4843 
4.49138 252.147 195.176 
-64.0077 231.154 110.125 
-27.7952 85.7681 82.5022 
-64.385 231.154 109.398 
23.8127 71.2296 -173.376 
18.303 190.248 196.63 
-64.4484 231.881 109.398 
-23.8588 127.93 45.1389 
-17.3165 92.3105 177.874 
45.1993 76.9383 -99.2298 
19.0299 126.476 -72.2176 
-39.1243 24.8888 24.3479 
-63.8398 234.788 110.293 
-63.9235 235.515 110.125 
-28.9473 265.404 80.3214 
-0.039775 46.3255 -96.0407 
27.8881 87.9489 147.926 
-8.06342 46.2698 -32.1379 
-26.7665 96.6721 173.12 
-8.59333 55.0858 -99.2298 
-25.3127 37.5354 -112.315 
-9.31084 270.408 62.1482 
29.3733 17.4369 94.133 
12.4876 90.7108 97.7676 
5.94523 60.3257 -119.7 
-63.8398 236.969 67.2192 
-7.13946 16.6259 163.918 
-64.4706 237.696 109.398 
-64.3844 237.696 67.2367 
12.4876 31.9605 169.733 
-64.3277 238.423 110.125 
3.76446 71.9565 -137.629 
29.9339 242.218 153.014 
38.6057 69.7757 82.5022 
67.7341 13.0754 84.3481 
-47.1718 218.069 -86.872 
-36.8561 219.176 132.647 
-43.4821 132.292 81.0483 
-5.48319 258.777 75.9598 
-63.8398 240.604 111.664 
-40.5781 123.454 86.1368 
-42.2391 159.188 -147.934 
30.6608 50.8756 -107.215 
53.1955 41.4255 -65.6142 
-7.13946 257.776 204.626 
-17.3165 109.03 -165.438 
-63.8398 242.058 110.752 
29.2069 85.7681 -167.157 
-63.8398 242.058 69.631 
33.5882 57.3079 -85.3451 
-63.8398 242.785 110.16 
-64.5267 242.785 109.398 
-6.31191 170.819 0.359285 
-18.7703 122.841 44.8357 
-36.2166 59.5988 -94.2755 
-63.8398 243.511 109.497 
-64.5526 243.511 70.1444 
-10.4779 191.173 -189.369 
80.8188 39.2448 121.019 
-13.6818 86.6388 78.8675 
-64.2752 244.965 107.945 
-63.8398 244.965 71.5652 
-42.6271 154.826 33.0711 
-64.5452 245.692 107.218 
-64.4741 245.692 71.5982 
-6.68136 20.5812 -78.622 
-63.8398 245.692 72.0633 
-20.2242 194.807 -178.742 
-5.68561 216.395 52.6981 
-63.8398 246.137 113.033 
-47.8474 229.7 46.9114 
-6.72888 27.3132 -89.8394 
-42.3298 295.85 78.8675 
-64.1165 246.419 110.852 
-32.8708 275.496 76.6867 
-63.9445 246.419 110.125 
-63.8398 246.353 109.398 
-63.8862 246.419 109.398 
19.198 244.513 185.647 
-9.45073 140.288 -147.207 
-64.1194 246.419 107.945 
-39.1243 209.396 -9.09077 
5.94523 84.5338 67.9636 
-14.6223 204.257 183.545 
4.34211 246.899 182.314 
-41.3051 5.07915 -134.752 
17.5761 80.6805 171.914 
25.5723 229.7 160.073 
-31.1281 182.45 -123.163 
11.7607 189.49 198.811 
-64.3746 247.873 114.487 
0.856741 97.399 -136.229 
19.0299 48.6587 -78.8758 
-64.4982 248.6 114.487 
-63.8398 248.6 115.035 
27.1861 95.8893 -89.5322 
64.8264 29.7947 89.2221 
-23.1319 109.757 170.156 
-63.8398 249.327 114.893 
62.6456 13.0754 85.6905 
-63.8398 249.325 75.9598 
-9.32025 50.8756 180.944 
-15.8626 246.602 159.557 
-18.0434 158.822 132.66 
32.8416 78.4989 -65.2357 
-63.9688 250.054 77.4137 
13.8331 20.042 -90.7106 
-2.80209 186.084 204.626 
-23.1319 242.058 152.046 
-7.13946 148.284 142.467 
-63.9335 251.508 113.76 
-26.0396 189.526 -183.553 
-6.07945 67.5949 -49.7987 
-6.48152 179.542 -51.9795 
-10.7741 32.7024 -148.338 
-38.2684 175.907 -150.842 
-39.2138 189.507 129.702 
-44.2221 146.394 -47.5787 
-40.5781 79.2258 76.295 
-64.4814 252.235 113.033 
-23.1319 6.53301 144.932 
-39.1243 19.6177 -131.127 
-17.3165 197.03 -150.115 
-21.86 27.6139 -139.938 
-2.7779 245.692 75.7785 
-63.8398 252.804 87.5906 
-63.8398 252.962 87.7988 
51.7417 35.6101 137.61 
6.67217 265.319 171.84 
-7.84596 3.79893 -76.3247 
7.39912 267.529 179.184 
-63.8398 254.415 111.149 
-6.63746 25.4331 -36.714 
18.0361 50.1487 -75.2412 
-40.5781 15.2561 139.79 
29.5885 209.099 187.133 
-63.8398 254.557 89.0445 
-63.8398 255.142 89.3008 
-28.9473 117.009 -131.215 
-63.8398 256.596 89.8531 
-31.855 278.404 82.9373 
28.8314 44.5918 -76.1571 
26.5036 82.1335 157.376 
-34.2582 3.62529 -92.6875 
-46.4251 208.619 -100.684 
-5.68562 123.975 -104.318 
-24.5857 3.90714 63.602 
-64.2507 259.504 89.7714 
-63.8398 259.504 90.2419 
-63.9269 260.231 90.4984 
-41.0874 18.8908 179.91 
37.2031 75.5912 -163.251 
-0.597105 188.265 140.564 
-5.83881 38.9131 -98.7426 
-36.1667 123.568 81.0483 
12.1771 208.507 130.464 
-31.855 30.1193 -126.853 
-7.12681 111.211 -99.9567 
-5.68561 86.5146 83.2291 
-13.3691 242.058 41.0673 
33.4985 89.4028 -153.749 
-10.0472 109.757 47.8948 
-5.68561 194.08 55.885 
17.8565 72.6834 -62.8834 
-11.3391 215.161 42.5211 
-63.9846 263.139 93.4061 
-34.7627 199.896 47.513 
-47.6537 277.677 34.5249 
-63.8398 263.176 97.7676 
-35.0344 172.999 -138.484 
-31.1281 1.95752 95.5869 
-40.5667 226.065 -59.2488 
2.39552 244.238 84.6829 
-11.501 160.189 127.572 
-64.2947 263.865 94.8599 
-63.8398 263.425 94.8599 
-64.4324 263.865 94.133 
22.6789 4.35222 -72.3335 
-10.0939 103.214 -99.2298 
17.5761 211.716 211.895 
37.4904 74.0885 -90.8978 
-42.7589 111.938 -21.8795 
-19.3472 198.909 45.434 
24.1184 215.888 199.713 
-19.4972 205.711 -23.6441 
-14.4088 136.653 -70.2761 
-4.6125 242.058 62.1482 
37.9301 39.9717 -92.2152 
-63.8654 279.131 22.8941 
-13.5137 211.606 131.539 
-64.0698 279.858 26.5287 
22.6646 65.9654 -48.3449 
-41.2868 186.093 24.4935 
-64.3013 279.858 24.3479 
-64.3319 279.858 23.621 
0.129818 247.146 79.4312 
-64.2741 279.858 22.1671 
-20.9511 196.116 -184.28 
9.57987 210.532 105.037 
-25.3127 95.2182 -44.116 
-7.23035 235.515 167.553 
20.2243 200.791 159.67 
-44.6109 182.371 129.294 
-31.6361 165.73 -137.03 
-64.1281 280.585 26.5287 
-64.2714 280.585 25.8018 
-64.3956 280.585 25.0749 
-64.4874 280.585 24.3479 
-4.23175 263.865 185.016 
-6.41253 264.802 181.364 
-64.3524 280.585 19.9863 
-63.8398 280.302 19.2594 
-19.1066 260.958 146.472 
-36.6081 146.103 -43.9833 
11.7607 263.139 171.935 
-35.7551 141.675 59.0375 
28.48 7.7287 -62.1565 
-8.66408 199.896 48.3366 
-64.4525 281.312 25.0749 
-63.8398 280.606 18.5325 
-33.3089 12.0059 -36.714 
33.5685 88.4339 115.214 
48.107 50.26 85.4099 
-64.0548 281.312 17.0786 
-34.8109 185.357 -130.488 
-28.7546 146.83 142.837 
-38.2983 77.7719 168.28 
-36.2166 105.624 57.0597 
27.9784 62.1679 -86.5192 
-63.99 282.039 15.6248 
-37.4524 83.5874 103.583 
-26.7665 257.842 75.2329 
-23.1319 260.958 143.269 
19.7569 7.98686 56.323 
-63.8398 282.431 14.8979 
3.342 203.53 81.0483 
4.49138 249.933 156.649 
-64.1277 283.493 25.0749 
29.5064 90.1297 123.937 
6.69811 108.303 167.553 
-63.8398 282.832 14.1709 
32.1146 20.6148 135.568 
18.303 4.76574 40.3403 
-37.4804 224.611 169.007 
-42.6559 140.294 -38.5498 
28.1925 62.4844 -86.4708 
-7.86641 100.307 -170.709 
31.3877 39.9717 -164.924 
-15.8626 76.0269 -91.9605 
-63.8398 284.219 11.8615 
-63.8398 284.878 24.3479 
9.57988 184.641 153.741 
16.1222 226.13 140.656 
40.6222 31.5634 -75.8202 
-34.7627 163.311 125.391 
-64.2104 284.946 11.2632 
11.7607 10.8946 44.7395 
38.7725 41.4255 -94.1413 
-17.3165 115.572 88.9963 
19.4253 21.7707 -89.4663 
-18.7703 197.777 -100.684 
-4.95868 121.388 91.4907 
21.7742 204.779 167.935 
29.2069 202.114 171.187 
27.1479 210.073 198.084 
-31.855 159.915 128.507 
43.755 67.5949 -155.93 
-43.4593 161.124 47.6686 
-63.8398 286.637 22.1671 
-63.91 287.127 21.4402 
-63.8398 287.127 21.5443 
-64.3699 287.127 20.7133 
-63.8398 286.816 9.08241 
31.6259 43.2726 -76.1239 
-14.5046 271.617 62.046 
-36.2166 95.2182 -111.831 
43.7455 30.6928 51.9712 
25.5723 215.161 201.205 
-21.678 4.28722 -113.041 
-32.4185 187.538 -162.473 
-18.7703 244.533 192.268 
-63.9061 289.308 18.5325 
49.5609 1.32342 43.975 
-63.8398 289.025 6.90164 
-63.8398 289.308 6.65204 
-10.2167 91.3489 62.2225 
51.5739 30.5216 -113.041 
5.94524 255.142 115.905 
19.0299 77.045 82.5001 
-44.2128 281.312 76.2851 
-64.4851 290.035 6.17472 
19.7569 6.58991 73.779 
-13.1445 198.095 172.149 
-34.7715 141.015 -63.9136 
32.5252 11.6215 68.6905 
22.6646 205.246 206.807 
-12.9549 250.781 154.488 
3.03752 141.742 90.6446 
-7.50472 260.231 65.0559 
11.685 13.9639 -15.8761 
44.4724 30.5216 139.517 
-36.2166 173.726 116.902 
-6.41254 181.316 172.641 
8.32418 246.878 181.562 
27.5581 34.1563 153.741 
29.0462 86.0961 -86.0373 
-42.7589 30.5933 169.007 
-48.4078 170.819 49.0635 
-5.23312 19.1951 -77.029 
-63.8398 294.176 9.08241 
2.36243 114.845 1.81313 
-14.7837 77.045 -6.90999 
-34.7627 4.55119 -141.392 
-18.7703 6.53301 -151.406 
-27.4934 183.191 163.191 
-10.0472 0.584034 -55.6141 
-17.5774 171.546 -171.196 
24.5602 202.625 172.23 
-63.1129 0.594626 67.9636 
37.1946 40.6986 50.5173 
-15.8626 207.005 -72.3335 
-15.8626 7.25994 35.2579 
11.7607 255.456 125.391 
-63.1129 0.897654 65.7828 
15.0586 16.4612 -87.3225 
-46.3936 61.7795 156.291 
13.2145 223.675 115.941 
5.94524 1.14439 123.21 
11.0338 251.508 191.536 
59.7379 26.887 88.2482 
28.48 12.2807 67.2367 
-27.4935 64.6872 -3.2638 
-8.59333 40.1362 -145.753 
-15.8626 249.327 154.27 
-63.1129 3.49217 61.4212 
-4.23176 171.051 -86.1451 
-47.1205 218.212 138.476 
34.4036 251.508 179.184 
-63.1129 4.23654 60.6943 
-18.0434 182.992 186.453 
39.0645 33.7253 -76.668 
27.8388 56.2327 -83.8729 
-38.3974 276.13 67.9636 
-63.1129 5.02536 59.9674 
-13.6818 138.107 -120.852 
-63.1129 5.80608 99.9779 
-24.5857 95.9451 -119.69 
-5.56733 109.03 171.914 
7.96967 142.469 133.387 
-63.1129 6.38658 101.402 
-63.1129 6.11201 100.675 
48.107 20.3446 75.4048 
-27.4116 224.742 123.601 
-63.2433 6.53301 58.5135 
30.9981 23.2523 88.3176 
-36.665 288.581 82.5022 
-63.1129 7.25994 57.9368 
-15.7963 223.158 27.9826 
-63.1129 8.71379 56.717 
-22.483 203.707 140.061 
12.4876 38.1816 23.621 
4.30742 16.5335 -28.287 
-33.3089 74.1373 -97.4542 
-0.240933 46.9938 -96.3522 
22.2247 64.227 -78.169 
-44.9474 204.257 2.5401 
-22.4049 181.033 166.099 
-30.4383 132.015 67.9806 
-7.18738 202.833 177.538 
-63.1129 12.3484 163.974 
21.9389 200.606 158.585 
40.8378 38.5178 52.7826 
-8.26067 17.4259 -77.2521 
18.5424 73.4104 67.2367 
-46.702 136.653 38.1596 
12.0598 189.152 102.609 
-63.1129 12.8953 172.641 
-10.7741 255.142 186.988 
46.6532 109.067 -85.4182 
1.70392 192.539 97.0349 
26.2992 14.0339 89.0445 
36.4762 48.5438 -62.1565 
29.9338 7.98686 -139.585 
-9.86259 196.261 -193.003 
37.9222 26.887 -83.2374 
-29.7467 95.2182 97.0407 
-63.218 13.8023 52.6981 
3.40838 223.756 100.965 
-63.2502 14.5292 177.003 
-63.1129 14.5292 177.578 
31.8791 14.395 -66.1317 
32.1146 38.6327 -61.4296 
-43.7064 48.6948 157.376 
-15.1357 190.446 -191.661 
8.12602 99.5798 171.101 
17.3904 2.89837 -86.1451 
9.80317 199.896 212.622 
27.7531 120.661 -88.5325 
-63.1129 14.5982 177.73 
11.7607 213.707 196.62 
-7.11677 178.815 -98.5029 
-32.5819 236.242 57.2794 
-46.4791 122.841 129.026 
-18.0434 131.068 -123.218 
-63.1129 15.9538 178.457 
-63.5165 15.9831 177.73 
-36.2164 219.523 133.387 
-47.8474 172.273 -126.41 
2.49179 195.534 80.3214 
-6.33388 255.142 148.653 
-63.1129 15.5768 124.664 
-63.1129 15.9831 50.9101 
-47.5454 93.7643 137.022 
-63.2868 16.71 177.003 
-63.1129 16.71 177.21 
-63.1129 16.3245 149.38 
48.107 31.9755 -60.8283 
-16.5895 171.546 -118.605 
-46.5986 260.958 93.4061 
-63.1129 17.3237 147.199 
-18.991 224.869 172.318 
-5.35657 183.903 -67.9719 
21.2315 210.025 188.23 
-63.1129 17.4369 -100.299 
36.0105 85.7681 -153.749 
-63.1129 17.132 -101.411 
-41.558 100.629 -17.8042 
-63.1129 17.0228 -102.138 
5.94524 184.63 187.289 
-3.50483 26.887 -37.2812 
-18.0434 251.634 47.6096 
-11.2848 201.35 -42.5294 
8.85294 10.512 -14.9062 
33.5685 5.07915 62.9193 
-63.4834 17.4369 -104.318 
-63.1129 17.207 -105.045 
-63.3129 17.4369 -105.045 
63.3725 81.7977 -80.3297 
-63.1468 17.4369 -105.772 
-4.23176 135.926 84.8954 
-43.4859 62.5065 -94.7272 
-33.0914 124.418 55.8468 
6.67216 35.6101 23.168 
32.4735 76.3181 137.022 
-20.4914 90.1297 177.003 
-3.50483 26.887 19.6258 
29.9338 34.8832 -162.643 
-9.77493 90.8159 63.1191 
-63.1129 17.5539 -99.9567 
6.66 1.44451 -131.215 
1.36344 193.353 78.8675 
-63.3852 18.1639 -106.499 
2.51594 242.058 86.1368 
-63.1744 18.1639 -107.226 
5.94523 93.0374 9.88423 
17.5761 71.9565 26.9505 
-23.8588 187.098 147.199 
-22.9323 93.7643 73.779 
-30.4012 103.214 -18.7476 
37.0054 48.6948 -62.8834 
-6.41255 133.097 -78.1489 
24.8454 72.0573 78.8675 
-39.1243 182.657 110.852 
-19.0173 159.915 -123.218 
3.06739 184.078 80.116 
-13.6818 11.5723 -154.476 
-12.9549 121.388 165.844 
34.5783 71.1033 -92.5732 
-13.9978 268.856 67.2558 
-14.4411 138.834 -70.8796 
9.7116 213.587 117.855 
-37.6704 4.52689 -47.6179 
-63.2857 19.6177 -108.68 
40.1894 79.9527 103.583 
-11.6949 259.504 66.5098 
45.3021 107.576 -76.695 
29.8713 88.4524 -82.3699 
-43.4859 219.481 150.833 
38.1459 183.903 169.007 
-63.4311 20.3446 -92.6875 
-63.1129 19.6192 -94.1413 
82.9996 37.1381 122.483 
1.58368 238.423 167.104 
24.1184 63.9603 -123.728 
17.1892 109.757 -77.6432 
-63.758 21.0716 177.003 
-63.1129 21.0716 177.481 
-36.9753 78.4989 80.3214 
-63.8388 21.0716 -108.68 
-16.5895 68.3219 -2.90939 
5.57226 190.882 98.5988 
6.28655 38.5178 -31.6255 
-63.1129 21.7985 46.1117 
-2.05096 214.434 64.9136 
-15.8626 69.7757 -90.3573 
-29.6742 166.457 -128.767 
-6.47508 92.3105 -69.4258 
-2.67876 44.3333 -153.749 
7.08827 23.9849 -22.4037 
-40.7607 188.992 128.299 
-63.1129 23.2523 44.9985 
74.2765 26.1601 134.465 
-42.7589 21.7985 -32.8625 
39.3839 39.2495 51.2443 
-47.8474 54.0184 -102.864 
7.88275 205.711 95.5869 
17.5828 125.749 127.572 
-47.522 262.368 54.6459 
22.2072 66.868 30.1634 
-63.6697 24.7062 -83.2374 
-42.7589 180.053 134.841 
34.2954 77.4787 89.7714 
-18.7703 168.638 -163.909 
-38.3974 36.3371 14.6191 
-63.3732 25.4331 -108.68 
42.7461 196.261 189.361 
-63.1129 26.1601 178.521 
-63.1572 26.1601 -53.4334 
-14.566 101.761 -105.045 
-63.1129 26.0992 -53.4334 
-18.0875 109.03 87.5906 
-46.7734 226.792 -61.4296 
-21.8874 99.5798 60.6943 
50.988 21.0716 46.8827 
-33.3089 5.01373 -97.049 
-26.0396 191.9 -113.015 
-46.1043 184.713 106.666 
-63.2317 26.1601 -57.7949 
-10.175 90.5301 63.5271 
-17.3165 121.853 44.7019 
-25.3127 115.572 -21.2491 
-25.3127 2.32098 108.672 
-28.2644 151.192 -49.7987 
-63.1129 26.887 178.497 
4.3248 24.1014 -29.5685 
-10.0472 186.475 -11.2715 
-7.20009 202.785 177.129 
-47.1205 218.194 -88.3259 
18.303 87.9442 167.553 
-6.45911 178.088 -57.068 
-1.32404 253.796 76.6867 
-29.6742 180.034 -123.218 
30.6118 31.5746 -59.9886 
-42.7589 218.069 -97.2794 
-43.1868 7.25994 116.668 
61.0073 57.418 -75.2412 
-63.5391 26.887 -61.4296 
-26.1129 49.8421 -25.3561 
3.47638 6.37329 85.3677 
-16.5895 221.716 30.8903 
-63.1129 26.887 -67.8647 
-63.4621 26.887 -77.422 
-63.1129 26.8486 -77.422 
-63.1129 26.6778 -78.1489 
-63.1129 26.2357 -79.6028 
67.0072 31.2486 90.9264 
-63.1129 27.5761 41.7942 
-43.4859 2.15566 -59.9757 
8.12602 121.246 158.83 
61.9187 45.7838 119.575 
-63.7707 27.6139 -52.7064 
5.94524 267.083 174.095 
-13.6818 108.303 173.007 
13.1913 18.1894 -87.2957 
29.2069 56.691 -115.93 
13.9414 51.767 -36.714 
-29.9451 134.614 51.7992 
-15.1357 218.923 38.1596 
-9.7212 95.8513 57.4294 
-18.0434 196.419 -160.292 
-63.8185 27.6139 -73.7873 
-27.8513 127.35 -61.4547 
-21.5578 134.375 -134.582 
-63.1129 27.0924 -75.9681 
-63.1129 26.996 -76.695 
-15.1357 106.864 -134.849 
-26.7665 167.406 122.483 
-63.1177 28.3408 -49.0718 
-28.2204 131.565 -28.577 
-41.3051 241.331 56.4295 
9.68366 141.742 129.026 
34.16 61.7795 -122.492 
-63.7177 28.3408 -51.2526 
-24.1741 142.469 38.1596 
-24.5857 199.169 -104.109 
-63.2774 29.0678 177.73 
-5.68561 93.0374 93.5677 
-31.1281 206.438 48.9087 
-63.3057 29.0678 -48.3449 
25.5723 66.9278 -50.5256 
-63.7107 29.0678 -49.7987 
42.2916 28.3408 46.287 
32.8416 13.7462 70.8713 
7.39911 2.28526 110.125 
-63.4164 29.7947 177.003 
-10.8798 9.16179 73.5055 
3.18567 118.48 5.44778 
-63.5808 30.5216 174.822 
-16.5895 103.214 90.6905 
-63.5202 30.5216 172.641 
-63.8346 30.5216 162.464 
35.6772 33.6933 -58.6143 
-7.86641 32.7024 -150.884 
-45.7019 47.241 150.833 
43.3893 31.9755 53.425 
-39.2786 153.952 52.0453 
42.6634 34.8832 55.6058 
-24.1166 182.45 11.2632 
40.8378 55.2372 120.18 
-41.3107 167.911 -152.296 
73.5495 13.8023 130.301 
-38.576 220.25 -42.5294 
-21.715 128.657 79.5944 
-39.8512 152.645 -158.521 
-5.39659 56.4071 -34.8012 
-36.2166 136.229 49.0635 
-30.4012 107.52 89.0445 
-5.66003 23.4171 -81.9266 
-26.7665 4.79711 -111.588 
-63.1129 32.0272 161.01 
-27.4935 41.7624 8.3555 
-13.6818 24.7062 18.3371 
-63.2789 32.7024 158.83 
-20.9511 159.188 -193.906 
-11.501 118.187 90.4984 
-63.6955 32.7024 155.922 
32.8609 39.2448 144.291 
-42.7589 122.115 46.3522 
-37.314 268.227 59.9674 
-16.5895 186.63 147.199 
-36.9435 9.30862 134.841 
-44.0196 215.377 127.532 
29.2293 89.4028 -140.665 
51.7417 36.3371 -75.2447 
-7.13947 85.4468 75.2329 
-63.1129 33.4293 155.121 
-31.1281 111.211 -21.6897 
-45.5865 17.4369 -37.4409 
-37.8723 206.901 135.769 
-63.6247 33.4293 151.56 
-15.8626 5.25507 147.926 
-7.13948 35.1318 -150.115 
-19.4972 129.378 80.3214 
-46.2428 106.849 133.387 
-63.1129 33.9617 151.56 
-13.5944 201.015 173.064 
-9.32026 59.5988 -38.9245 
-7.13947 181.723 71.5876 
36.4762 27.7583 91.2253 
25.6674 12.2996 -7.41334 
-63.1129 34.1563 -102.432 
53.1955 93.0374 -97.9955 
13.9414 183.968 176.276 
57.5571 5.27771 100.675 
-63.1129 34.7928 147.199 
-28.9965 116.118 79.8003 
-63.1129 34.8832 -42.5863 
-3.694 48.3567 -100.404 
-37.6704 227.519 166.42 
47.3801 33.4293 58.9177 
-63.3688 35.6101 -42.5294 
-37.6704 156.251 -163.199 
-38.3974 147.557 -50.4158 
-36.7778 135.199 47.6096 
-26.0396 105.395 -50.0016 
-63.2431 36.3371 -99.2298 
-20.9511 102.487 -153.195 
49.4824 99.5798 -97.049 
39.3933 30.5216 -86.1451 
-2.77791 81.4066 -143.894 
-12.9549 161.389 -42.5294 
-6.41255 54.2473 -99.9567 
-7.13947 163.549 71.0379 
37.3211 89.0316 -98.5193 
-1.52267 250.781 145.018 
5.04876 39.2448 -30.8986 
-63.601 37.7909 137.749 
-63.3568 37.7909 -97.7759 
-30.4095 130.441 70.9641 
33.9662 111.211 -77.422 
-45.6666 220.086 -85.4182 
-4.95868 3.62529 144.913 
-42.7589 12.3893 -98.5029 
26.7379 231.154 160.283 
21.6697 7.25994 -11.9985 
-40.5782 23.2523 -126.755 
-63.1129 38.1737 75.9598 
72.8226 39.9717 132.563 
-5.41187 242.785 61.4212 
-7.8664 63.9603 1.77457 
-0.597106 4.34516 114.487 
-11.5091 183.903 155.922 
49.5609 103.214 -93.1556 
-26.9258 115.491 79.804 
-23.8588 66.868 -30.6973 
-18.0434 209.794 -67.9719 
-30.7231 27.6139 -130.488 
-37.6704 235.515 144.942 
-45.8112 175.965 42.2233 
-63.1129 38.9367 73.0521 
-5.65218 178.815 -18.5408 
-63.7541 39.2448 71.5982 
73.5495 39.2448 132.861 
-12.0703 221.149 179.48 
-39.8512 31.9065 19.2594 
29.2069 233.619 150.106 
-63.1559 39.9717 135.568 
-40.5782 225.286 -73.7873 
-47.1205 290.035 73.7593 
-63.2132 39.9717 81.0483 
-20.9511 188.992 110.204 
-63.1129 39.5605 80.3214 
21.9376 63.9603 -78.104 
-63.1129 39.9717 70.8927 
-42.409 212.981 -107.953 
-12.228 189.214 -100.684 
-4.23176 3.53474 -134.122 
21.9376 56.691 55.4613 
-63.7655 40.6986 134.841 
-18.0434 55.2372 -31.5148 
21.2107 88.5982 -137.03 
-0.938986 17.6897 -77.3262 
-63.1129 40.3902 70.1444 
-26.7665 29.0678 17.0964 
34.2954 32.7024 -160.599 
-44.9397 148.429 -57.068 
-39.8512 49.4218 163.653 
3.03751 101.034 -137.419 
-63.1129 40.4776 -96.3221 
49.1812 87.222 -76.695 
-7.13947 62.7823 -43.2564 
-63.1129 41.4255 82.7643 
-46.1763 110.484 121.756 
-10.6173 192.627 -179.919 
0.856748 115.572 32.9666 
-9.80011 47.1114 -32.3346 
41.5647 51.9423 -114.495 
-18.7703 123.568 -21.4321 
52.8238 40.6986 -134.122 
-28.2204 25.4331 165.085 
-46.1574 191.9 -118.13 
44.3378 55.2372 89.7714 
-47.8474 93.0717 137.749 
-63.1129 42.1525 67.0759 
30.6608 32.7024 147.485 
-63.7204 42.1525 -39.6217 
43.938 69.7757 -152.296 
-63.1129 41.4918 -96.3221 
18.303 77.045 79.1847 
-63.1129 42.1525 -96.4691 
-10.0472 103.333 -99.2298 
8.85295 212.079 196.63 
40.3912 54.5102 67.2367 
-63.1129 42.409 83.956 
29.9208 207.782 183.786 
-36.4122 172.999 -141.392 
-63.4386 42.8794 -38.8948 
-0.597103 267.5 182.843 
29.9338 11.5893 -36.714 
27.8671 53.0284 -79.6568 
-63.1129 43.5644 85.4099 
-63.1129 43.6063 85.4599 
-15.1357 193.353 -176.569 
-1.54622 31.2486 18.5325 
-46.3936 236.242 48.8959 
-8.58569 167.184 -67.9719 
13.2145 130.537 139.929 
-5.59776 175.907 -94.8682 
3.76447 111.977 25.8018 
0.838112 194.807 72.3252 
30.0491 86.2159 -73.8162 
-40.5781 217.369 151.56 
-10.0176 6.79491 -71.4009 
13.9414 31.9755 24.4572 
-63.1129 44.3333 65.0451 
57.5598 53.0564 105.037 
-37.0141 268.227 60.6943 
0.856754 114.411 168.28 
40.1108 200.905 191.541 
5.16967 245.919 186.502 
23.7604 8.71379 -15.6331 
-28.2204 91.5836 95.3029 
-0.597116 54.5102 -110.296 
-23.1319 127.203 45.1734 
-18.9573 110.712 -134.657 
34.4809 119.207 -81.0566 
-42.032 217.342 -12.8882 
-39.1243 285.673 74.8721 
-22.405 175.18 -146.922 
-41.3013 36.3371 16.3517 
31.9331 31.0259 -85.0852 
27.0261 250.174 186.453 
38.473 44.3333 -163.926 
-63.1129 46.514 88.3639 
-14.4088 196.247 -95.5952 
-33.7211 115.572 -126.853 
37.0031 20.4828 -70.4705 
-63.1129 47.241 89.069 
31.3877 254.694 188.634 
-63.4047 47.241 63.602 
-63.7686 47.241 62.1482 
-63.7331 47.241 -38.1679 
16.0702 19.1832 -47.9702 
22.6646 250.781 188.075 
-7.86639 100.317 175.549 
-12.954 143.922 -145.026 
-63.1129 47.9195 -98.5029 
-4.12844 239.048 190.099 
39.3839 80.7289 115.941 
-63.8207 48.6948 140.656 
56.1033 3.62529 134.157 
38.862 39.9717 51.2443 
-38.3974 36.8154 -25.8101 
4.78194 93.7643 6.90164 
-7.13947 110.484 -99.3135 
43.7455 189.719 198.463 
-46.3936 189.719 12.218 
-63.1129 48.8396 33.798 
-63.1129 49.4218 33.5699 
12.7044 79.9527 72.3252 
44.4724 25.0697 -94.1413 
-0.597102 262.418 198.084 
-40.5781 214.719 49.0635 
-63.1129 50.1487 64.4986 
-63.1129 50.1487 -36.7163 
-63.1129 50.8756 92.3686 
0.856743 58.4847 -79.6028 
-12.9549 5.87877 105.764 
-63.8103 50.8756 61.4212 
19.0299 13.0754 29.4223 
-11.756 22.0573 -86.1725 
-63.2458 50.8756 -36.714 
-36.7252 183.176 153.741 
-38.3974 216.312 -33.8063 
-63.1129 51.6025 143.135 
-63.1129 51.4812 92.6791 
34.9945 68.3219 -168.288 
-63.1129 50.8864 33.0711 
-25.3127 151.919 -137.774 
-22.9244 151.192 -62.1565 
20.5674 203.657 161.731 
37.9301 25.4331 17.7418 
9.82694 5.99487 -74.2235 
-63.1129 52.3153 143.564 
-42.144 89.4028 64.329 
0.856751 113.933 97.0407 
-13.0993 198.442 -25.0832 
52.4686 65.4142 -71.0094 
-63.5347 52.3295 33.0711 
4.83495 149.011 94.133 
-29.6742 46.6083 -101.411 
-0.6806 130.111 -150.842 
-63.5225 52.3295 -36.714 
-2.05096 167.911 106.585 
-63.5302 53.0564 143.564 
-27.4934 180.9 157.376 
-15.1357 114.118 -16.291 
-63.1129 53.0564 31.7508 
-31.6477 219.523 145.745 
-26.7665 136.701 -30.8986 
48.8099 35.6101 62.8751 
-37.3456 218.069 -90.5067 
-1.13894 24.2962 -70.3431 
-63.1129 53.7102 -35.9871 
-63.7813 53.7833 -36.714 
-8.59333 98.8529 -133.894 
-63.8187 54.5102 95.5869 
-11.986 254.415 170.46 
-63.1129 54.5102 64.3902 
37.4019 181.723 171.187 
-20.4375 87.222 -110.861 
-63.1129 55.2372 95.7138 
-32.6904 259.504 71.5982 
69.188 38.5178 130.766 
-1.58209 130.838 -153.022 
-19.4972 154.849 -62.8834 
-45.0812 15.9831 -38.1679 
-12.8234 203.53 155.922 
-63.1129 55.9641 96.3211 
2.6475 223.708 115.334 
78.8898 30.5216 134.114 
-34.7627 3.62529 -92.0041 
-43.4859 8.91131 -105.045 
-63.1129 55.9113 -35.9871 
25.034 209.747 190.443 
-34.0358 279.858 88.065 
-6.76194 202.804 195.319 
-29.6038 125.712 54.044 
-63.1129 56.691 96.9898 
-63.1129 56.691 64.4363 
-18.7703 176.185 -199.546 
-41.3051 204.257 6.05317 
-45.7425 42.1525 -27.2639 
-15.1357 208.27 31.6172 
5.97173 64.6872 -129.034 
-17.3165 1.59011 132.66 
-39.1243 126.682 46.1558 
-35.4897 134.472 -137.093 
-36.2166 186.084 -131.892 
43.0186 45.7871 -61.8121 
-4.82667 162.822 74.506 
2.3106 207.892 135.781 
-19.6755 199.412 41.8307 
-63.1129 57.8196 64.329 
26.3547 90.1297 153.741 
11.0337 6.35668 51.9712 
-63.348 58.1449 26.5287 
36.4762 2.24061 -121.765 
34.8886 60.3257 -121.038 
29.6335 125.749 -78.8758 
-25.2354 138.969 -133.79 
-43.4859 0.893916 65.7828 
26.8286 32.6632 17.7285 
-35.6843 236.969 149.38 
24.1184 227.519 169.316 
43.7816 34.8832 -156.657 
-40.423 133.745 76.6867 
-18.0434 157.007 -123.229 
-7.7923 202.733 193.125 
-63.1129 58.8718 -97.7845 
-63.1129 59.5988 147.092 
-44.9397 208.783 1.08621 
27.7531 26.887 -15.1841 
-47.8472 27.6139 172.641 
-63.5169 59.5988 61.4212 
25.3154 2.17144 -97.7759 
-9.82734 247.146 50.5173 
-63.1129 59.3991 -36.714 
38.657 29.0678 -55.1273 
-63.1129 58.8861 -97.7759 
29.5037 208.619 198.084 
32.1146 255.869 181.804 
-14.9577 178.088 -177.738 
-63.1129 60.3257 62.8442 
45.9263 5.62123 -65.7911 
36.7379 72.6834 128.299 
30.8703 12.3484 -12.7254 
-19.8032 195.534 -190.096 
-28.5209 85.7681 93.4061 
26.3194 188.992 138.476 
-63.5325 61.0526 25.0749 
40.5815 54.5102 -164.653 
30.6458 86.7395 -75.5521 
-3.50483 190.446 94.0992 
26.2992 53.7833 39.7866 
-63.8398 61.7795 25.8018 
-63.6816 61.7795 25.0749 
4.60083 190.446 81.0483 
-25.3127 232.608 189.538 
-30.0927 167.911 -129.034 
0.856754 13.0754 158.599 
-9.63282 82.1335 -156.657 
-63.1129 62.0391 101.402 
-63.1129 62.5065 62.4306 
-63.8282 62.5065 -95.5952 
-46.7203 189.719 -118.13 
-21.5675 26.887 -140.665 
-44.2128 26.1601 26.5865 
-63.1129 63.2334 102.84 
-63.1129 62.6412 102.129 
17.7979 71.2296 59.9674 
-33.3089 188.265 -123.683 
-4.95868 205.236 56.3328 
48.834 8.71379 -62.1754 
-4.95868 240.604 61.3797 
-38.3274 15.9831 32.3441 
12.6739 40.6504 22.7246 
-4.97444 238.423 173.368 
-63.6222 63.9603 60.6943 
2.31059 0.404384 -124.672 
33.5685 21.7985 -14.4703 
77.3117 23.9793 131.206 
-35.4897 10.2198 36.7057 
33.5685 104.668 -95.0109 
-5.04576 203.53 200.991 
-63.4303 64.6872 -37.4409 
34.2283 46.514 -58.5219 
-39.9291 79.2258 76.6867 
40.9339 22.3447 -71.1299 
-63.3682 65.4142 59.9674 
35.7493 7.98686 -66.2036 
-34.7627 236.255 57.0597 
56.8171 96.6721 -80.3297 
-32.5819 180.269 17.8584 
-63.8199 66.1411 147.926 
2.31059 61.3481 -65.7911 
-63.1129 66.102 105.764 
-29.5218 134.368 49.0035 
-48.5222 161.369 60.6943 
-15.118 265.319 114.487 
-63.6155 66.1411 19.2594 
-15.9064 47.9679 -104.318 
-63.1129 66.1411 -37.3963 
-30.2325 273.315 82.5022 
0.856756 185.721 215.53 
-28.9473 144.649 66.5172 
-3.73836 222.63 104.306 
-63.1129 66.868 106.534 
-44.9397 215.049 138.476 
-24.5857 92.3595 84.6829 
-20.9511 93.0374 176.759 
-63.7588 66.868 -38.1679 
-63.1129 67.5949 -37.836 
47.3801 7.413 -13.4523 
-63.1129 68.3219 149.056 
4.06232 12.4209 -19.8106 
-2.77791 64.4176 -49.7987 
-63.7331 68.3219 17.8056 
34.6134 247.146 174.822 
32.1146 44.3333 -90.6024 
39.3839 201.775 188.634 
-37.4011 149.738 41.7942 
41.5647 6.23517 -50.5256 
-63.4145 69.0488 16.3517 
-63.6182 69.0488 -38.8948 
-16.853 74.1373 -92.6875 
53.1955 5.83162 47.6096 
39.3839 76.3181 92.9996 
22.6646 3.71897 -120.311 
0.282556 13.6449 -75.2753 
30.6643 50.1487 32.3441 
-30.4012 41.682 -109.407 
-24.1959 212.254 41.7942 
-48.5743 216.27 132.66 
-33.5232 130.834 67.7098 
-63.1129 70.5027 148.858 
72.0957 29.7947 105.009 
12.4876 69.8688 -57.068 
-12.975 270.859 69.3132 
45.1939 52.3295 -160.292 
-5.05422 255.142 147.926 
-11.6608 255.869 198.811 
-20.2242 203.503 -91.2336 
-45.6666 2.13239 75.2329 
-2.7779 58.8718 -36.4264 
-41.3358 82.1335 163.918 
45.9263 21.7985 25.5631 
-4.23052 77.7719 -166.834 
17.7196 113.796 -72.4811 
-63.1129 71.4136 112.306 
-63.7547 71.9565 14.8979 
-5.68561 260.902 139.203 
12.3789 205.711 169.733 
-26.0757 100.253 68.8046 
22.6646 226.616 140.656 
29.9339 185.665 166.826 
-3.45105 266.773 181.364 
-44.9397 263.865 93.9486 
-63.1129 72.6834 56.9106 
-23.8588 171.546 -195.46 
2.01988 185.301 82.8831 
-38.3394 51.6025 -101.411 
-63.1129 73.3136 147.926 
-63.1129 73.4104 147.887 
35.6294 5.80608 64.329 
-23.8588 235.515 36.0386 
-44.9397 6.51182 111.579 
10.8784 252.235 115.941 
-63.1129 73.4104 -90.2863 
-31.1281 217.558 51.2443 
38.657 10.4493 -137.03 
-43.4859 143.195 132.428 
69.1375 21.0716 91.9522 
-7.20358 246.419 204.626 
-63.1129 73.4183 115.214 
7.39911 54.3713 16.3517 
-18.6027 101.761 86.8637 
-63.1129 73.9371 -39.6217 
19.0299 243.46 142.11 
75.9044 35.6101 116.668 
-63.2577 74.8642 118.849 
-48.7463 210.8 -17.087 
6.67216 252.235 107.15 
-63.5383 74.8642 -89.0528 
-12.1707 111.938 47.6096 
-46.3936 20.721 -35.2602 
56.1107 36.3371 76.6867 
29.9893 73.4104 153.741 
-20.9511 252.98 20.7133 
-63.1129 75.5912 54.708 
-37.6704 104.247 99.9484 
-63.5057 75.5912 11.2632 
-44.9397 145.376 70.518 
-39.1243 262.009 121.029 
-63.1129 75.5912 -89.1274 
1.58368 77.7719 179.627 
21.2107 8.82158 -57.7949 
51.7417 2.14901 44.7019 
65.5533 15.2561 83.8929 
-29.6742 167.911 -140.784 
7.51351 85.7681 56.3328 
-63.1129 76.3181 -89.0023 
-63.1129 76.0402 -89.0528 
69.9149 49.2639 111.579 
-36.9435 257.323 67.7451 
38.2634 24.7062 17.8056 
-12.9352 39.2448 -116.676 
-3.50483 61.6682 -41.8025 
-36.2166 7.14342 131.933 
11.7607 53.7833 -71.7827 
17.5761 184.722 176.276 
-22.2467 111.211 -161.019 
-36.2166 266.271 97.7676 
45.9917 50.1487 123.21 
-63.1129 77.1715 -89.0528 
-10.7741 149.009 142.837 
34.198 52.3504 -82.0471 
-45.1862 213.963 118.984 
-63.5534 78.4989 9.08241 
-4.82381 202.077 59.2405 
0.12981 51.9303 -113.041 
35.7493 103.941 -96.3476 
27.7531 48.8417 37.4326 
-63.4569 78.4989 -89.0528 
-15.8962 39.9717 -113.041 
0.856748 17.4369 29.0879 
-19.3885 89.4028 75.9598 
17.5761 60.3257 -75.4424 
-24.7679 223.884 153.741 
-63.1129 78.6064 123.937 
-63.8295 79.2258 51.2443 
48.107 39.9717 -61.7868 
-63.1129 79.2258 7.90649 
-63.4558 79.2258 -41.8025 
-44.2128 74.961 81.0483 
-34.7627 216.912 -51.9795 
44.7598 62.5065 -130.488 
-63.7991 79.9527 127.572 
-63.3488 79.9527 126.845 
30.6608 69.7757 151.54 
36.4762 1.44451 -114.693 
-20.9511 1.44451 48.4745 
39.6629 200.623 185.726 
63.4918 41.4255 91.9522 
-32.5637 264.592 70.1444 
68.2664 38.5178 102.129 
-63.1129 79.9527 -90.5254 
-4.23176 261.221 76.6867 
-63.1129 80.5052 127.572 
-63.1129 80.538 51.9712 
63.272 48.6948 93.4061 
31.8058 38.2748 -72.8677 
-63.1129 80.6796 -42.2449 
-12.228 202.492 -38.8948 
48.834 55.2372 -146.832 
-40.2683 216.183 130.898 
-16.3787 177.361 -193.73 
35.0223 53.0564 -111.959 
19.0299 98.8529 106.935 
0.0776661 206.494 197.151 
-6.41254 253.371 54.8789 
7.38636 194.664 119.468 
-17.2668 60.3257 -33.0794 
20.1825 205.547 165.869 
-63.4382 82.1335 131.206 
-47.9774 277.677 33.798 
-12.9549 136.653 -22.5514 
40.1108 60.3257 120.7 
-46.3423 105.395 134.114 
-63.6627 82.1335 6.90164 
-2.7779 129.735 158.83 
-39.1243 194.08 46.6245 
-26.3268 225.338 140.656 
53.9225 42.4088 76.6867 
-63.4413 82.8604 136.295 
-63.4047 82.8604 135.568 
49.5609 33.4293 60.5919 
-26.7665 219.338 165.372 
44.4724 2.9154 30.1634 
-63.1129 82.3784 131.206 
15.3953 1.83103 86.8637 
-31.855 115.572 -129.047 
-26.8801 34.8832 -118.13 
-63.7129 82.8604 -91.2336 
23.3915 204.257 207.469 
-7.13948 2.69275 -134.122 
-17.5266 32.7024 173.368 
-27.6615 154.826 -137.757 
-37.604 219.523 -86.1451 
-44.9397 146.728 69.4174 
8.12602 247.873 120.936 
29.2069 11.6215 -144.512 
-63.1129 83.5874 5.43591 
34.2954 20.9247 -75.9681 
-8.59333 105.395 -134.226 
31.7127 42.3809 -75.5029 
-25.3127 182.381 11.9901 
-26.8367 74.1373 -100.684 
-63.3854 84.3143 5.44779 
-11.501 27.5744 -150.115 
-37.6704 180.977 49.0635 
-15.1716 261.685 94.133 
28.48 10.8618 115.941 
19.6837 188.265 113.033 
-11.501 157.649 133.387 
-1.59502 198.442 72.3252 
-63.6486 85.0412 5.44779 
30.6915 47.4304 -84.5737 
8.85295 74.1373 176.555 
-17.3165 154.193 -39.6217 
-63.1129 85.0412 -44.4799 
-18.0434 129.29 -22.9024 
-15.8626 166.457 18.1031 
-15.6267 66.868 -96.3221 
11.1779 12.1939 -88.9866 
28.8316 46.514 -46.891 
26.2992 232.608 170.918 
-63.1129 86.4951 46.8472 
-33.3089 265.319 112.952 
-63.7698 86.4951 45.4288 
16.2665 14.4247 -54.0874 
-5.68561 90.8566 91.8382 
27.0261 47.9679 23.6017 
-4.95868 259.921 99.9484 
-15.3542 262.316 76.6107 
-24.5857 265.398 94.8599 
-41.8605 139.494 -37.1859 
-63.3837 87.222 -46.1641 
41.6557 72.6834 -137.757 
47.3801 23.2523 38.3616 
-39.8512 48.6211 -105.045 
-63.5723 87.9489 -46.891 
66.7536 47.9679 103.583 
-12.5803 206.137 179.488 
-63.1306 88.6759 -46.891 
-12.6338 2.17144 57.0597 
35.0224 8.59935 112.306 
-63.1129 88.7029 -46.891 
-25.4853 117.753 -158.838 
24.9891 58.8718 165.372 
27.48 14.5292 91.9522 
-4.83054 141.742 -15.6331 
-9.32026 5.7608 -150.842 
-63.1129 90.8473 1.08621 
-63.1177 90.8566 1.08621 
51.7417 54.7314 105.037 
-63.1129 90.7439 -48.3449 
-63.6621 90.8566 -49.0718 
32.1146 24.1164 -14.1793 
-40.4108 226.065 -59.9757 
42.2916 10.1487 -70.8796 
-25.5359 111.938 55.6058 
0.856751 254.984 85.4099 
-36.9435 216.615 156.802 
12.6787 20.6836 -89.8468 
28.1996 231.881 149.38 
-28.9473 185.357 164.546 
10.192 214.048 115.222 
-47.8474 22.5254 -34.6389 
-63.2799 93.7643 -0.367638 
30.6608 71.9565 -57.3189 
13.2145 3.62529 126.087 
-27.3813 159.188 -129.034 
-28.9473 0.22369 -52.7064 
-44.5839 225.338 -53.4334 
1.1393 110.484 35.2518 
-37.5404 21.0716 169.733 
-63.1129 94.494 -1.09456 
26.9026 49.0203 -77.0587 
21.2107 6.47652 -67.245 
-45.698 37.7909 145.745 
-63.7804 95.9451 42.5211 
-5.29123 157.007 -81.0566 
-63.4076 95.9451 -51.9795 
37.2031 11.9715 -18.5408 
-63.1129 95.8286 -99.9567 
-16.8469 6.91122 -80.0368 
-42.032 183.858 131.933 
-12.228 190.82 109.398 
-8.24802 68.9601 -81.7844 
18.303 27.7867 -40.3486 
-4.85239 159.188 6.17471 
9.77669 250.781 128.299 
-19.0216 185.357 184.272 
-45.0756 178.815 -126.853 
-39.8408 6.53301 123.937 
-63.1738 97.399 -100.684 
-63.1129 97.782 42.5211 
-14.0125 2.17144 -99.2298 
-40.7817 175.606 31.5867 
-17.3165 29.0678 -144.616 
-39.1243 147.372 -50.5256 
-63.1129 98.0831 -53.4334 
-63.1129 98.1259 -53.4709 
-32.9978 170.092 -133.395 
-63.1129 98.8529 41.838 
-28.2204 125.749 159.092 
-63.1129 98.8529 -3.8604 
-10.7741 190.136 131.933 
-63.6697 98.8529 -100.684 
61.1959 62.5065 -73.0604 
-7.13946 262.162 136.295 
42.4422 25.4331 41.0673 
-63.1129 99.5798 41.4206 
-15.9282 157.734 -65.7911 
-4.95868 7.8878 35.2518 
-5.19427 198.866 182.431 
-26.7665 197.327 -3.27533 
16.6261 10.8946 34.5249 
23.3915 51.6025 167.974 
77.9111 44.3333 121.732 
-22.389 217.953 116.209 
-39.8512 188.992 -128.055 
-63.1129 100.369 41.0673 
40.8378 43.8242 -101.411 
5.94524 120.661 160.319 
-34.7627 281.339 87.5906 
20.4838 95.9451 -169.378 
48.8354 37.064 -109.407 
-21.678 172.273 -198.203 
37.2031 37.7909 47.4528 
-63.8392 102.487 -4.72918 
-63.1129 102.487 -5.45221 
-63.1129 101.771 -102.864 
-15.8198 135.926 37.4326 
0.129813 32.6835 -33.0794 
-27.4935 148.284 -42.2856 
17.5761 72.6834 -64.4625 
-63.4978 103.214 -5.45615 
25.1538 97.399 146.472 
39.3866 22.5254 -21.4485 
30.6608 42.1525 48.906 
1.58367 35.7447 19.2594 
-38.3974 28.0432 167.553 
22.0585 240.604 144.291 
-17.3165 96.6721 87.8683 
-17.4188 109.757 -57.7949 
-32.5819 109.757 165.105 
-63.7896 104.668 38.8865 
77.9111 26.8313 124.664 
-31.2207 185.357 -172.65 
-16.5895 125.749 162.901 
-41.3051 147.557 -52.241 
-63.3138 105.395 -6.90999 
61.1917 58.6591 -80.3297 
-63.1129 106.122 39.295 
-36.2166 229.05 163.918 
-5.68561 8.7194 155.195 
-28.2204 9.38485 -146.48 
-22.8731 57.418 -96.3221 
23.4496 129.384 -86.1451 
-12.9967 180.996 -109.407 
-15.1357 252.648 44.7019 
-63.1129 106.849 -60.027 
-63.8187 106.849 -105.045 
-12.9549 141.118 150.833 
-30.4012 103.941 63.7028 
26.4795 15.2561 82.5022 
30.1704 88.4337 -80.5405 
49.5609 55.1695 105.037 
-42.032 226.792 149.459 
6.8691 151.919 103.583 
-28.9473 36.3466 -116.676 
-63.2733 108.303 -61.4296 
19.6478 21.4755 -17.995 
-10.7741 242.224 202.445 
35.4521 45.0602 34.5249 
-63.1129 109.03 37.4351 
-18.7453 226.659 117.943 
-63.1129 108.596 -61.4296 
43.8526 48.6948 68.6905 
-63.4052 109.03 -106.499 
-28.2204 188.909 139.929 
-63.2755 109.757 36.7057 
-25.2242 230.427 33.0711 
-40.5696 223.884 -46.1641 
-3.2059 48.6948 -153.749 
8.41366 205.788 174.522 
-30.5206 103.941 63.602 
-63.1129 109.757 -107.25 
-20.2242 167.911 121.609 
-15.1357 157.007 25.1262 
40.1108 39.9717 -60.1217 
-63.1129 110.484 -107.806 
-23.8588 153.372 -51.9764 
15.3953 59.5988 173.748 
-63.1129 111.211 -63.0693 
-18.3451 196.666 48.9902 
32.1146 208.619 188.287 
0.236132 195.252 106.998 
-63.1129 111.938 -63.5725 
-13.6818 87.5693 82.5022 
-63.1129 111.989 -63.6103 
-63.2679 112.664 -64.3373 
-63.8079 112.664 -108.68 
-63.1129 113.391 35.5088 
-15.8626 114.118 -114.128 
45.1993 66.5696 -67.245 
-63.1129 113.391 -109.973 
-10.6161 203.871 181.144 
1.2984 253.688 199.538 
-21.678 210.8 33.2079 
-28.6243 188.992 -175.557 
19.7569 119.207 -71.1145 
84.4534 40.1422 123.937 
43.7455 1.05613 36.7057 
13.2145 78.4989 44.6433 
-23.1319 181.187 -187.915 
54.6494 15.2561 -18.2752 
24.1184 220.341 212.622 
-63.1129 115.385 -11.9985 
-29.6742 13.19 -35.2602 
-27.4935 85.0412 -12.9674 
18.7323 114.118 115.941 
-63.1129 115.475 -110.861 
-42.589 188.747 124.13 
-63.1129 115.618 -66.5181 
-44.9117 216.387 121.303 
8.12602 1.95503 81.0483 
-63.1129 116.694 34.5249 
-24.2599 154.909 31.5453 
-44.2128 47.241 154.753 
-63.1129 117.026 -12.7696 
-63.2828 117.026 -67.9719 
-30.4012 182.107 50.5173 
-31.855 79.9828 174.095 
17.8639 19.0586 -88.4927 
-63.1129 117.333 -67.9719 
-8.20778 228.246 189.361 
24.3619 52.3295 166.826 
-63.1804 118.48 -13.4523 
-63.1129 119.207 -13.93 
-41.0945 256.54 66.1052 
-32.1283 113.925 57.7731 
-63.3586 119.934 -14.1793 
43.7802 79.9448 -99.4387 
17.7107 125.022 126.118 
-63.8249 120.661 -70.8796 
20.4838 3.62529 51.2625 
-63.1129 120.661 -112.305 
-17.3165 148.321 -33.0794 
8.49459 206.438 99.2215 
-63.1129 120.941 -70.1527 
-7.28303 41.9921 -94.1546 
-39.1243 109.03 -49.2637 
-16.5895 0.22639 -103.591 
-41.3051 217.342 150.132 
-37.6704 121.388 48.6695 
-2.02385 190.446 69.4174 
16.1339 9.44072 39.6134 
-44.2128 70.5027 161.856 
-44.3521 180.285 131.47 
-7.15682 144.649 -112.315 
-1.6642 5.21789 -66.1209 
74.2765 43.6697 130.479 
-13.6818 3.46246 -120.311 
35.7493 76.2888 -63.6103 
14.6684 218.061 208.988 
-39.1964 257.323 65.7828 
-63.1129 124.295 -114.01 
-3.01399 38.4831 -88.5573 
-63.1129 125.749 31.1676 
-63.1129 125.749 -71.997 
-15.1357 158.461 66.0765 
-47.9656 259.504 120.302 
43.8726 53.0564 -117.403 
-63.1129 126.748 30.8903 
-47.8474 212.746 -18.5408 
5.96573 104.668 19.9863 
-5.18012 200.868 184.278 
43.0946 196.261 192.268 
-43.2603 221.704 155.195 
41.0471 193.353 180.637 
1.62116 214.434 80.3214 
-63.1785 127.93 -19.2678 
-20.9511 226.065 158.136 
-63.1283 128.657 30.1634 
18.8788 115.572 121.029 
-37.5356 26.1601 167.553 
-14.4088 135.199 -120.879 
-63.1129 128.464 -73.0604 
-6.41254 67.4444 -49.0718 
-63.6477 128.657 -114.495 
-13.7132 122.841 -166.834 
-29.528 220.25 171.187 
-27.6588 191.173 131.933 
32.1146 41.1325 48.3366 
-43.733 213.707 -105.772 
23.3915 18.8908 148.589 
-38.3974 254.731 150.833 
-44.2128 292.558 82.5022 
-48.1424 10.1676 -78.1489 
-42.032 34.0308 -27.2639 
-39.8512 289.308 84.9079 
3.03751 86.4951 -134.026 
32.8025 28.465 -75.2512 
-63.1129 130.811 28.7095 
-25.3127 150.874 -44.7102 
-63.2917 130.838 -20.7216 
3.03752 234.074 81.0483 
6.67215 55.1194 -79.6028 
-63.1129 131.504 27.9826 
-0.236856 47.2503 -92.357 
-63.7923 131.565 -20.7216 
-42.7589 255.869 133.566 
-63.7709 131.565 -115.222 
53.7056 28.3408 76.6867 
57.5571 29.7947 89.2325 
-47.9403 224.611 -43.9833 
-20.9511 168.783 -190.096 
35.0223 1.82459 59.2405 
-12.9549 226.152 183.545 
43.6923 56.5201 -91.088 
29.2069 72.6834 81.3339 
-63.1129 134.233 25.8018 
-63.3098 134.472 -22.9024 
-63.1129 135.199 25.4792 
-63.1129 135.199 -23.5583 
50.2878 5.80608 101.153 
-37.1441 159.915 -141.392 
-11.3321 238.423 47.6096 
-63.6668 136.653 -116.676 
32.1146 45.627 26.5287 
-18.0434 204.984 26.5819 
23.7691 104.247 -88.6123 
31.3877 9.44072 -140.848 
42.2916 40.6986 -60.2035 
-63.1231 138.107 -73.7873 
-5.68561 239.15 61.6117 
-16.4549 8.60517 96.2475 
27.502 219.523 217.711 
-8.9645 194.807 -33.8063 
-0.387966 6.765 83.6378 
0.85675 225.484 74.506 
-2.05097 42.8794 -156.04 
-63.1129 139.561 -26.5624 
2.55723 193.204 102.252 
-63.5325 139.561 -117.403 
-7.86639 161.369 123.899 
-63.7109 140.288 -74.5143 
-8.59332 144.649 145.424 
46.6532 54.5102 -64.8162 
-36.2002 221.704 166.099 
-63.1416 141.742 24.3479 
-46.4123 210.8 -4.72918 
55.6557 13.0754 -20.7216 
-63.2309 141.742 -27.9909 
-31.1281 65.4142 -3.5883 
-16.8877 56.691 179.91 
28.5093 196.988 159.557 
3.76447 119.934 97.4389 
-44.9397 100.307 -113.586 
-63.1129 142.469 -28.6756 
-14.4088 204.984 -76.6874 
27.7531 231.881 159.222 
-36.8797 218.796 -56.3411 
5.94524 123.099 159.557 
-39.0572 140.288 -147.934 
3.74592 11.4221 -18.6173 
-63.1129 143.922 23.3884 
7.3991 0.717586 -66.9808 
14.0693 131.205 -73.594 
29.2044 49.4218 156.649 
20.4838 5.31654 110.852 
35.0224 11.268 107.945 
29.9338 111.836 -75.2412 
-42.6271 139.976 -38.09 
0.129808 32.7024 -155.303 
39.4682 34.1563 -88.3259 
-47.5855 4.35222 -126.126 
-32.5819 85.9941 73.0521 
-63.1129 144.649 -30.9486 
-3.50483 225.696 119.575 
5.90521 18.8908 -19.9947 
-44.2765 77.045 77.4137 
-63.1129 145.268 -31.6255 
25.5723 48.3154 -94.8682 
-0.638627 139.561 -3.27533 
-63.1129 145.725 22.1671 
-63.5227 146.103 21.4402 
-63.2527 146.103 -32.3524 
30.056 15.2561 103.583 
30.6608 1.33152 57.7866 
-25.0564 197.586 49.6139 
32.8416 46.2004 33.0711 
-63.7414 146.83 20.7133 
-63.2755 146.83 -33.0794 
-44.9397 4.67374 -54.8872 
-63.8072 146.83 -116.676 
-63.1129 147.081 21.4402 
-63.2712 147.557 -33.8063 
-63.1129 147.557 -73.4764 
38.657 4.6673 -126.126 
5.71942 63.2334 -136.303 
-7.21638 93.9691 -133.522 
-16.568 259.504 79.5944 
-17.7134 197.266 43.3247 
-63.6722 148.284 -74.5143 
-41.8939 269.681 49.0635 
-6.71651 2.17144 -138.484 
-63.1129 148.99 -35.2602 
27.0261 45.6824 -84.6913 
-63.1129 149.011 -35.2782 
40.5838 53.7833 122.483 
43.5856 51.6025 72.3252 
35.7568 7.98686 111.579 
15.4854 114.118 107.945 
-29.2483 3.62529 -114.495 
-11.501 106.122 50.065 
-39.8512 201.35 46.8185 
1.91335 192.585 97.4638 
42.2999 73.4104 -154.476 
-63.6515 150.465 -35.9871 
-13.6818 54.5102 2.32542 
-27.5996 187.27 147.816 
-48.0323 119.207 44.7019 
47.3801 23.625 -31.6255 
