ply
format ascii 1.0
comment Author: CloudCompare (TELECOM PARISTECH/EDF R&D)
obj_info Generated by CloudCompare!
element vertex 1784
property float x
property float y
property float z
end_header
35.9063 -141.854 115.481 
26.3523 -141.854 116.956 
-32.9141 -141.854 115.221 
-62.685 -141.854 112.453 
76.5084 -141.854 112.901 
53.2158 -141.854 112.246 
-66.8026 -141.854 103.144 
-65.298 -141.854 104.167 
17.8626 -141.854 102.535 
69.3 -141.854 103.23 
-71.2949 -141.854 103.165 
-39.9735 -141.854 104.771 
66.531 -141.854 107.079 
-14.3978 -141.854 107.717 
23.9043 -141.854 103.089 
27.1468 -141.854 106.14 
4.57406 -141.854 108.978 
32.4029 -141.854 110.701 
119.237 -141.854 114.507 
43.744 -141.854 103.693 
-40.7638 -141.854 103.63 
85.6106 -141.854 106.677 
121.561 -141.854 108.414 
68.2314 -141.854 109.474 
106.705 -141.854 108.128 
-25.7845 -141.854 107.051 
-46.439 -141.854 102.471 
16.0142 -141.854 106.454 
97.8821 -141.854 110.059 
-33.8914 -141.854 103.996 
95.6965 -141.854 112.359 
-29.5676 -141.854 106.179 
103.427 -141.854 112.6 
46.7101 -141.854 106.139 
29.8123 -141.854 107.325 
96.613 -141.854 114.274 
41.4259 -141.854 102.113 
-97.2248 -141.854 101.703 
54.8755 -141.854 108.776 
101.577 -141.854 102.464 
24.6027 -141.854 107.432 
111.756 -141.854 104.78 
110.51 -141.854 102.915 
84.3845 -141.854 102.408 
33.0725 -141.854 103.946 
107.045 -141.854 106.518 
61.2354 -141.854 103.731 
42.4602 -141.854 104.673 
105.608 -141.854 103.155 
-8.57011 -141.854 102.263 
85.9984 -141.854 114.845 
99.2566 -141.854 103.568 
31.8419 -141.854 105.486 
7.18449 -141.854 109.031 
92.9637 -141.854 102.83 
-41.0215 -141.854 102.609 
92.144 -141.854 106.837 
-59.4644 -141.854 104.831 
79.3294 -141.854 106.27 
54.2755 -141.854 110.249 
2.1435 -141.854 103.652 
54.9678 -141.854 105.325 
-45.3305 -141.854 101.567 
-57.9157 12.3729 -101.975 
-76.5474 12.3729 -103.919 
21.2799 12.3729 -102.327 
-19.3926 12.3729 -102.794 
-23.2876 12.3729 -102.484 
28.9239 12.3729 -101.841 
18.3588 12.3729 -101.565 
32.1937 12.3729 -102.161 
28.4628 12.3729 -102.637 
31.5889 12.3729 -102.817 
78.5048 12.3729 -104.451 
4.00675 12.3729 -104.49 
35.6683 12.3729 -103.808 
-15.7226 12.3729 -104.102 
74.3097 12.3729 -104.454 
-6.8151 12.3729 -104.174 
-5.07616 13.5841 -104.497 
-26.8855 13.1597 -104.497 
-68.9038 14.7772 -104.497 
-26.51 13.4585 -104.497 
-24.4394 13.4202 -104.497 
-56.8272 14.9679 -104.497 
5.88844 12.4371 -104.497 
-59.3354 13.4196 -104.497 
-34.1023 13.2836 -104.497 
-36.3651 12.5332 -104.497 
-47.3113 15.379 -104.497 
65.4709 12.9434 -104.497 
28.1688 14.0467 -104.497 
15.7358 14.6251 -104.497 
11.9212 15.462 -104.497 
-18.5328 15.805 -104.497 
65.258 14.0251 -104.497 
1.87107 14.5911 -104.497 
25.0465 13.8291 -104.497 
69.8809 13.4357 -104.497 
2.18404 12.4681 -101.408 
-3.47713 13.0418 -101.408 
47.1284 13.1839 -101.408 
-30.8253 12.7553 -101.408 
-11.3389 13.5246 -101.408 
-11.8149 12.9534 -101.408 
59.84 12.4709 -101.408 
-28.4608 13.5308 -101.408 
-73.0596 12.538 -101.408 
-73.8426 15.6197 -101.408 
-68.0848 13.6492 -101.408 
-76.3831 13.4879 -101.408 
-5.68519 15.5916 -101.408 
11.4596 14.6184 -101.408 
-25.4893 14.0944 -101.408 
-47.5535 14.2067 -101.408 
-80.3354 15.9388 -101.408 
36.0653 15.7515 -101.408 
28.7869 15.9392 -104.363 
77.8696 15.9392 -104.341 
82.0055 15.9392 -104.379 
50.4361 15.9392 -104.452 
4.23235 15.9392 -104.422 
12.7223 15.9392 -102.695 
83.2666 15.9392 -103.202 
30.4564 15.9392 -104.114 
-1.63312 15.9392 -102.348 
-45.8449 15.9392 -101.813 
-10.9405 15.9392 -102.821 
-34.3615 15.9392 -103.157 
-11.6353 15.9392 -102.773 
-23.6897 15.9392 -102.317 
-10.6627 15.9392 -101.652 
51.7918 14.303 104.497 
69.921 15.8251 104.497 
20.0474 15.1326 104.497 
4.68937 14.6394 104.497 
77.6438 14.5924 104.497 
-49.7019 15.8904 104.497 
6.82101 15.4571 104.497 
1.33913 14.6536 104.497 
-7.73393 15.809 104.497 
61.7485 14.5227 104.497 
-48.0833 14.6251 104.497 
13.0295 13.2024 104.497 
-17.9337 14.0931 104.497 
-71.8716 14.8422 104.497 
-70.5089 13.7416 104.497 
-62.6503 14.7551 104.497 
52.2061 13.0537 104.497 
-41.9338 14.0386 104.497 
-80.8427 14.572 104.497 
-79.8172 13.0764 104.497 
-78.577 13.9281 101.408 
16.0553 13.4855 101.408 
21.5117 12.4296 101.408 
-54.1734 14.9101 101.408 
-81.9014 13.1676 101.408 
-63.6076 12.7361 101.408 
-51.64 12.4824 101.408 
-52.7143 14.6861 101.408 
-76.506 14.1936 101.408 
35.5411 14.9863 101.408 
35.0972 14.696 101.408 
80.8551 12.6325 101.408 
56.8515 14.4576 101.408 
70.1298 13.1218 101.408 
28.9723 15.8426 101.408 
42.0939 13.6885 101.408 
81.5909 13.5202 101.408 
68.6652 14.0114 101.408 
-20.5375 12.3729 103.332 
50.7572 12.3729 102.085 
-71.161 12.3729 104.379 
-5.84861 12.3729 103.65 
27.6533 12.3729 103.022 
11.1286 12.3729 103.645 
54.3889 12.3729 104.413 
62.404 12.3729 102.338 
65.5113 12.3729 101.63 
-64.5511 12.3729 102.364 
-19.9865 12.3729 103.019 
7.20358 12.3729 102.381 
-51.7866 12.3729 101.805 
-15.1713 12.3729 102.383 
-27.3885 12.3729 103.023 
-19.8105 12.3729 102.51 
-62.086 15.9392 101.555 
-38.216 15.9392 102.735 
-25.9662 15.9392 101.872 
-76.3136 15.9392 102.306 
-67.4078 15.9392 103.352 
3.66135 15.9392 101.63 
-70.3719 15.9392 103.913 
-39.6021 15.9392 101.714 
22.976 15.9392 103.354 
82.0318 15.9392 102.269 
26.2615 15.9392 102.609 
-53.8875 15.9392 103.929 
2.43093 15.9392 104.143 
-43.0446 15.9392 104.313 
24.9637 15.9392 104.41 
-43.0299 15.9392 104.099 
114.671 -13.4127 -120.693 
52.1046 -13.5269 -120.693 
61.0237 -12.7047 -120.693 
-10.6092 -12.7743 -120.693 
-37.1052 -13.2253 -120.693 
41.2531 -13.2249 -120.693 
95.5911 -13.2578 -120.693 
-64.7446 -13.5766 -120.693 
-50.0396 -12.4155 -120.693 
-44.7258 -12.391 -120.693 
38.0705 -12.1559 -120.693 
58.2523 -12.0329 -120.693 
-87.4035 -13.0279 -120.693 
-54.4082 -12.9818 -120.693 
50.1775 -12.0996 -120.693 
92.1487 -11.7016 -120.693 
-67.673 -13.6266 -77.6163 
-121.655 -13.6266 -31.5383 
24.6677 -13.6266 -35.8119 
-119.715 -13.6266 -54.7409 
-48.0367 -13.6266 -55.4034 
-82.443 -13.6266 12.7861 
-100.749 -13.6266 -45.9535 
20.5178 -13.6266 -45.583 
-109.86 -13.6266 -42.3951 
18.7622 -13.6266 -46.1839 
-78.5168 -13.6266 -74.8836 
-57.2051 -13.6266 7.99133 
-95.9572 -13.6266 -8.72342 
-14.3872 -13.6266 -45.6013 
21.141 -13.6266 -53.0823 
-88.3193 -13.6266 33.1446 
-92.2723 -13.6266 -52.8134 
-65.6926 -13.6266 -66.4858 
-68.926 -13.6266 31.4674 
-25.2452 -13.6266 -17.4592 
-39.7766 -13.6266 26.1514 
-116.776 -13.6266 94.3991 
-43.9853 -13.6266 39.7548 
-52.1575 -13.6266 30.5359 
1.89421 -13.6266 -45.9339 
33.197 -13.6266 -88.5347 
-32.5973 -13.6266 23.2776 
-14.8497 -13.6266 -64.112 
-120.295 -13.6266 -36.5731 
-119.338 -13.6266 4.8078 
-44.491 -13.6266 -118.892 
-18.2394 -13.6266 -12.7346 
16.6233 -13.6266 -98.0982 
-45.8623 -13.6266 21.8727 
48.6924 -13.6266 -89.9097 
-43.1971 -13.6266 -41.1605 
-6.80737 -13.6266 -12.422 
-101.499 -13.6266 -99.9835 
-47.7187 -13.6266 -99.817 
68.9979 -13.6266 -107.856 
-32.6336 -13.6266 -79.6607 
-96.2228 -13.6266 71.1604 
-116.542 -13.6266 71.9085 
-74.8529 -13.6266 -16.2695 
0.165253 -13.6266 -6.17224 
6.12925 -13.6266 -45.9774 
-97.2448 -13.6266 68.2411 
-53.7117 -13.6266 -110.87 
15.6069 -13.6266 -36.9343 
101.706 -13.6266 -114.658 
10.3275 -13.6266 -58.5197 
-110.717 -13.6266 3.53982 
22.3803 -13.6266 -42.3071 
-113.991 -13.6266 -72.7047 
9.18765 -13.6266 -17.7368 
-50.9763 -13.6266 -112.992 
20.859 -13.6266 -31.6609 
-27.7584 -13.6266 -112.947 
-104.866 -13.6266 -7.01656 
95.7764 -13.6266 -115.623 
29.0837 -13.6266 -50.5828 
-26.1597 -13.6266 -28.3184 
-2.30511 -13.6266 -115.815 
60.5064 -13.6266 -107.03 
24.1462 -13.6266 -24.566 
-46.7547 -13.6266 -79.3892 
-64.8938 -13.6266 13.4829 
-113.075 -13.6266 70.0535 
-113.817 -13.6266 -19.7637 
-74.2594 -13.6266 -60.8081 
-46.0821 -13.6266 -86.6234 
15.7676 -13.6266 -47.422 
-44.7177 -13.6266 -15.3128 
-43.3832 -13.6266 13.441 
-110.465 -13.6266 -22.5893 
-98.6653 -13.6266 56.4032 
-59.1274 -13.6266 -87.0706 
-44.5778 -13.6266 40.959 
-6.47624 -13.6266 0.6716 
-14.9447 -13.6266 -7.94265 
-7.16603 -13.6266 -67.0202 
-26.715 -13.6266 -44.709 
-41.1328 -13.6266 -103.589 
-83.6719 -13.6266 -32.5997 
-114.669 -13.6266 -49.5518 
-50.1684 -13.6266 -105.827 
-62.9105 -13.6266 23.1861 
-95.9931 -13.6266 62.819 
66.9959 -13.6266 -104.995 
-28.7903 -13.6266 -62.7274 
-102.052 -13.6266 -63.5254 
-74.0018 -13.6266 -3.87404 
-70.9982 -13.6266 -3.55618 
-99.8715 -13.6266 -12.4352 
-80.4733 -13.6266 -16.4978 
-81.5419 -13.6266 76.7451 
53.6715 -13.6266 -76.624 
59.0677 -13.6266 -114.843 
-104.398 -13.6266 -86.1159 
-81.3089 -13.6266 -104.475 
-93.9865 -13.6266 -48.7841 
-108.403 -13.6266 66.4571 
-116.073 -13.6266 -24.7951 
-54.06 -13.6266 7.34282 
-114.058 -13.6266 -38.9746 
110.318 -13.6266 -114.666 
-65.8644 -13.6266 -51.1007 
16.4492 -13.6266 -40.6015 
-104.859 -13.6266 -59.9955 
-70.6966 -13.6266 -6.72239 
-64.1171 -13.6266 5.86343 
-39.6036 -13.6266 -102.3 
-91.6289 -13.6266 -94.4527 
-21.5724 -13.6266 -19.7818 
-105.649 -13.6266 79.2195 
35.1662 -13.6266 -75.0689 
14.8077 -13.6266 -83.8272 
-32.4736 -13.6266 -98.3484 
-16.5064 -13.6266 -1.50609 
-99.4408 -13.6266 17.8112 
-83.9864 -13.6266 -92.5506 
0.812645 -13.6266 -37.6674 
-24.2477 -13.6266 -111.805 
-10.443 -13.6266 -113.033 
-52.3029 -13.6266 13.1257 
24.6491 -13.6266 -94.799 
-45.7803 -13.6266 -29.8887 
-90.0936 -13.6266 83.9288 
72.7352 -13.6266 -85.9423 
-12.8035 -13.6266 -93.5484 
-54.1745 -13.6266 -28.3041 
60.969 -13.6266 -97.1641 
-94.731 -13.6266 67.3041 
83.2277 -13.6266 -98.5384 
-93.9862 -13.6266 37.2646 
17.0192 -13.6266 -108.517 
40.2397 -13.6266 -97.523 
-111.642 -13.6266 -81.7762 
41.6419 -13.6266 -46.3838 
-107.333 -13.6266 -57.1716 
-71.3667 -13.6266 -91.0022 
12.3291 -13.6266 -37.96 
74.7627 -13.6266 -111.164 
-91.8766 -13.6266 -69.4601 
-71.1994 -13.6266 -120.194 
-65.8573 -13.6266 25.2285 
-44.4727 -13.6266 30.0667 
45.4838 -13.6266 -52.1054 
-79.8493 -13.6266 -14.0431 
67.8318 -13.6266 -83.3634 
-74.3285 -13.6266 63.0134 
35.5175 -13.6266 -67.8424 
-25.026 -13.6266 4.75986 
-105.749 -13.6266 -31.8548 
-113.193 -13.6266 -104.144 
-44.0404 -13.6266 -93.3341 
-51.726 -13.6266 34.7511 
-106.179 -13.6266 67.3979 
11.2997 -13.6266 -97.0772 
-22.8128 -13.6266 -15.7755 
-117.671 -13.6266 -111.922 
13.7789 -13.6266 -40.2579 
-103 -13.6266 58.9693 
-29.0892 -13.6266 -41.6046 
-115.234 -13.6266 -71.9781 
-27.2631 -13.6266 13.3592 
-84.7188 -13.6266 63.3991 
-30.4298 -13.6266 -102.854 
-96.2605 -13.6266 -9.84983 
-20.8346 -13.6266 -45.6073 
20.6753 -13.6266 -37.5708 
70.6674 -13.6266 -95.6028 
-16.2325 -13.6266 -68.3215 
9.07835 -13.6266 -41.6085 
-11.8245 -13.6266 -33.1099 
-71.3836 -13.6266 -119.866 
11.124 -13.6266 -115.341 
25.2143 -13.6266 -91.9707 
21.3097 -13.6266 -100.362 
-111.886 -13.6266 -89.6138 
-45.5536 -13.6266 -108.322 
-67.7858 -13.6266 -102.2 
-76.4294 -13.6266 -62.0863 
29.2053 -13.6266 -52.4952 
-33.8294 -13.6266 -75.0413 
-56.0893 -13.6266 -5.07582 
-20.7751 -13.6266 -58.4713 
-57.7066 -13.6266 -53.885 
-112.285 -13.6266 110.051 
-38.9805 -13.6266 -63.7042 
-46.2467 -13.6266 -52.8165 
-69.6365 -13.6266 -16.8625 
-95.921 -13.6266 19.3483 
-58.888 -13.6266 -8.31398 
-8.98067 -13.6266 -116.215 
-92.7533 -13.6266 -23.3741 
-34.6329 -13.6266 -27.8227 
15.6889 -13.6266 -112.707 
-81.7535 -13.6266 -52.5178 
-101.238 -13.6266 -115.321 
-103.858 -13.6266 78.1559 
-91.8812 -13.6266 89.826 
-56.9827 -13.6266 -39.7623 
-64.144 -13.6266 25.4666 
-91.5551 -13.6266 -72.5348 
83.6733 -13.6266 -119.897 
30.3477 -13.6266 -111.987 
-93.8835 -13.6266 67.6501 
17.9547 -13.6266 -22.281 
-77.867 -13.6266 64.6581 
-86.8797 -13.6266 -105.071 
-92.3192 -13.6266 3.17125 
-99.7105 -13.6266 -70.0905 
-25.5396 -13.6266 1.18536 
-58.864 -13.6266 -105.001 
51.6596 -13.6266 -107.23 
48.9415 -13.6266 -118.065 
-80.2307 -13.6266 -38.9496 
26.1808 -13.6266 -116.721 
-20.4683 -13.6266 -59.9799 
7.89085 -13.6266 -81.0676 
-102.264 -13.6266 -24.0264 
-51.8408 -13.6266 38.7932 
-94.3126 -13.6266 -0.757133 
-117.997 -13.6266 12.8827 
-85.4022 -13.6266 55.5637 
-113.413 -13.6266 75.2659 
17.814 -13.6266 -26.831 
-57.0598 -13.6266 -47.1168 
-86.2304 -13.6266 -20.1387 
20.7663 -13.6266 -65.9486 
27.4944 -13.6266 -43.7657 
-106.139 -13.6266 40.6796 
45.0186 -13.6266 -100.663 
10.1116 -13.6266 -91.3305 
-117.812 -13.6266 95.9 
-118.571 -13.6266 73.4558 
28.519 -13.6266 -67.4283 
-51.3607 -13.6266 30.2263 
-5.97665 -13.6266 -17.9437 
-59.6672 -13.6266 -25.3241 
-62.686 -13.6266 -115.82 
-56.8067 -13.6266 17.2469 
-110.748 -13.6266 -117.542 
-12.5473 -13.6266 6.43988 
45.794 -13.6266 -73.5 
-92.0323 -13.6266 24.0503 
-82.5653 -13.6266 9.23257 
-20.512 -13.6266 -41.5007 
-86.0392 -13.6266 -41.9538 
-115.661 -13.6266 -110.093 
-35.9022 -13.6266 -80.5495 
-77.5709 -13.6266 18.3177 
-16.2793 -13.6266 14.459 
36.2703 -13.6266 -106.328 
-93.1152 -13.6266 -107.935 
-76.4064 -13.6266 -93.9692 
-78.451 -13.6266 -83.5816 
-16.8027 -13.6266 3.858 
4.64108 -13.6266 -52.0009 
-49.5733 -13.6266 -17.4662 
-59.6702 -13.6266 -22.8472 
81.7791 -13.6266 -120.648 
49.5488 -13.6266 -61.5869 
-54.2754 -13.6266 2.37299 
-72.9265 -13.6266 -89.0406 
-65.1716 -13.6266 -28.1326 
22.8779 -13.6266 -117.757 
-76.9139 -13.6266 -14.4644 
-39.0221 -13.6266 26.8212 
-109.24 -13.6266 -14.4412 
-100.274 -13.6266 -41.0219 
-84.7854 -13.6266 -43.1101 
5.19573 -13.6266 -76.4989 
31.7959 -13.6266 -107.368 
-50.2503 -13.6266 22.1468 
-108.84 -13.6266 70.8144 
17.7981 -13.6266 -72.757 
83.3645 -13.6266 -102.711 
-116.109 -13.6266 20.9352 
-47.6813 -13.6266 -14.0375 
-89.5676 -13.6266 44.8208 
3.93981 -13.6266 -18.0081 
-50.2799 -13.6266 -113.584 
-92.1954 -13.6266 48.5915 
-76.2293 -13.6266 -10.889 
-94.21 -13.6266 3.00118 
72.8129 -13.6266 -83.9742 
-54.2809 -13.6266 -47.7146 
-51.2681 -13.6266 -92.5058 
-92.9013 -13.6266 10.8342 
107.287 -13.6266 -106.416 
-83.2956 -13.6266 73.6714 
-116.018 -13.6266 74.7699 
-88.162 -13.6266 -76.0983 
-34.1569 -13.6266 -104.735 
-49.9558 -13.6266 -52.7786 
-7.00191 -13.6266 6.52466 
-113.107 -13.6266 -91.5299 
-16.3118 -13.6266 -68.3681 
-104.479 -13.6266 23.3873 
-24.298 -13.6266 -88.8833 
-91.3446 -13.6266 64.4305 
-54.6695 -13.6266 -120.465 
-25.3433 -13.6266 15.6118 
-117.403 -13.6266 -77.0494 
-105.786 -13.6266 -24.1123 
-105.649 -13.6266 -94.1597 
-115.526 -13.6266 94.0254 
-109.682 -13.6266 -9.1167 
9.08006 -13.6266 -39.4343 
-70.3894 -13.6266 -14.4802 
-42.3359 -13.6266 -36.1433 
-102.294 -13.6266 55.3466 
5.03442 -13.6266 -44.5715 
27.9393 -13.6266 -111.553 
-70.6882 -13.6266 -95.4647 
-91.9053 -13.6266 27.4701 
-81.755 -13.6266 -35.3145 
30.0045 -13.6266 -116.322 
-19.8161 -13.6266 -5.98588 
-37.3918 -13.6266 -6.41132 
-80.9593 -13.6266 -73.5591 
-74.2862 -13.6266 51.1188 
-66.338 -13.6266 -107.688 
-51.3969 -13.6266 45.5411 
57.3446 -13.6266 -119.311 
17.3195 -13.6266 -115.485 
100.138 -13.6266 -118.077 
16.354 -13.6266 -93.7937 
-89.1274 -13.6266 9.84016 
-60.9044 -13.6266 -0.391228 
-82.0653 -13.6266 -10.4822 
-94.6947 -13.6266 -40.9108 
-119.262 -13.6266 4.89731 
-40.0488 -13.6266 -118.198 
-55.4684 -13.6266 31.0987 
29.6187 -13.6266 -70.0841 
51.3855 -13.6266 -100.762 
67.8375 -13.6266 -78.8862 
-64.5612 -13.6266 29.3194 
11.395 -13.6266 -79.4564 
-69.8674 -13.6266 67.9069 
-93.7519 -13.6266 85.1634 
86.034 -13.6266 -100.401 
-80.2329 -13.6266 -6.95669 
-43.0973 -13.6266 -78.9716 
15.2403 -13.6266 -70.5186 
-76.4414 -13.6266 -65.1892 
-114.383 -13.6266 -77.9387 
56.0476 -13.6266 -61.0648 
7.78765 -13.6266 -43.3323 
-101.253 -13.6266 -2.83252 
-38.5857 -13.6266 -113.705 
-89.7753 -13.6266 72.3943 
-50.711 -13.6266 46.27 
-19.4742 -13.6266 -109.582 
87.1626 -13.6266 -119.695 
83.3006 -13.6266 -99.2975 
-71.6869 -13.6266 68.7534 
-110.705 -13.6266 51.0697 
-70.4927 -13.6266 -75.2172 
-30.0017 -13.6266 -117.862 
-19.9233 -13.6266 -92.0601 
-21.1198 -13.6266 -26.2677 
-82.5336 -13.6266 67.5077 
-113.646 -13.6266 52.873 
-107.554 -13.6266 92.6875 
-109.842 -13.6266 -74.6675 
20.4306 -13.6266 -25.5218 
-118.172 -13.6266 -11.6423 
-34.4648 -13.6266 -16.3446 
-87.9096 -13.6266 -34.0745 
-111.475 -13.6266 -120.651 
-111.519 -13.6266 -36.1585 
-5.01577 -13.6266 -43.9503 
32.1593 -13.6266 -118.304 
87.5467 -13.6266 -88.0931 
-34.6172 -13.6266 -12.8361 
-91.0294 -13.6266 22.6225 
55.8626 -13.6266 -113.978 
-72.3788 -13.6266 49.9666 
-0.815514 -13.6266 -55.8646 
-72.082 -13.6266 -2.71732 
-45.7805 -13.6266 -118.59 
-105.388 -13.6266 -26.5897 
-45.8045 -13.6266 44.5527 
6.54189 -13.6266 -70.8583 
-15.7829 -13.6266 -115.632 
-103.028 -13.6266 49.0118 
44.8052 -13.6266 -82.5163 
53.1456 -13.6266 -106.913 
-22.3772 -13.6266 -76.9879 
92.3378 -13.6266 -100.439 
-94.437 -13.6266 -103.874 
-13.7733 -13.6266 -93.0414 
82.9027 -13.6266 -117.284 
-102.499 -13.6266 -79.4268 
-2.87716 -13.6266 -101.611 
-12.5944 -13.6266 -30.7878 
-105.058 -13.6266 -47.7905 
-51.6342 -13.6266 -113.281 
-88.4993 -13.6266 -14.7646 
34.0775 -13.6266 -117.023 
26.7662 -13.6266 -46.1154 
-97.7228 -13.6266 -100.013 
36.7783 -13.6266 -72.2183 
-103.4 -13.6266 70.6325 
-90.2958 -13.6266 53.0835 
-87.7467 -13.6266 -88.0242 
-90.739 -13.6266 -89.9633 
-35.8549 -13.6266 -47.6312 
67.4517 -13.6266 -92.4116 
-111.328 -13.6266 -112.738 
55.1207 -13.6266 -101.159 
42.5835 -13.6266 -99.1562 
-32.647 -13.6266 20.7756 
-79.7217 -13.6266 -4.24973 
-120.728 -13.6266 -30.6211 
-112.396 -13.6266 -15.1183 
-46.0541 -13.6266 -37.7164 
25.151 -13.6266 -68.5069 
74.7814 -13.6266 -110.128 
10.1963 -13.6266 -40.5419 
-10.1076 -13.6266 -66.8845 
-117.936 -13.6266 22.8752 
-7.18609 -13.6266 -31.7352 
-100.693 -13.6266 -75.4607 
-43.5339 -13.6266 27.2816 
16.9518 -13.6266 -111.541 
94.8496 -13.6266 -118.773 
-79.6431 -13.6266 -57.4781 
-97.7156 -13.6266 -28.4362 
-103.376 -13.6266 -27.6976 
-88.9038 -13.6266 -29.1779 
58.17 -13.6266 -102.73 
-39.1015 -13.6266 -45.645 
-35.7738 -13.6266 -104.272 
-119.879 -13.6266 -6.69292 
35.4548 -13.6266 -89.5359 
-61.1177 -13.6266 41.3845 
-40.1394 -13.6266 -56.7193 
-101.786 -13.6266 -24.0093 
15.8621 -13.6266 -42.538 
-80.739 -13.6266 2.77023 
-71.4484 -13.6266 43.37 
64.7484 -13.6266 -68.0028 
60.5341 -13.6266 -88.1094 
6.63674 -13.6266 -43.1301 
-62.8956 -13.6266 -78.4292 
-40.4301 -13.6266 -100.026 
89.8621 -13.6266 -99.8737 
-64.3731 -13.6266 -77.0041 
-113.818 -13.6266 -26.3159 
18.0813 -13.6266 -25.9264 
-4.07477 -13.6266 -18.1087 
-85.9093 -13.6266 25.6722 
-29.4253 -13.6266 19.494 
-11.4684 -13.6266 -12.472 
-89.5722 -13.6266 -78.7581 
-106.603 -13.6266 84.9446 
-81.4241 -13.6266 74.1008 
-94.6606 -13.6266 -73.413 
-40.8251 -13.6266 -55.9365 
-87.775 -13.6266 -31.1296 
49.2401 -13.6266 -100.187 
60.7555 -13.6266 -95.661 
7.18222 -13.6266 -32.0844 
7.35635 -13.6266 -68.5017 
-57.9337 -13.6266 -34.2147 
-59.2795 -13.6266 -118.272 
-43.2035 -13.6266 -74.4175 
-24.4934 -13.6266 -41.1503 
-60.9058 -13.6266 -12.0193 
-59.5798 -13.6266 -89.8178 
31.0103 -13.6266 -96.3694 
-15.277 -13.6266 -42.7553 
-61.7921 -13.6266 -71.2285 
-100.805 -13.6266 -11.0699 
-25.6884 -13.6266 19.3651 
-84.484 -13.6266 27.0665 
-49.8267 -13.6266 -34.116 
-119.151 -13.6266 88.4199 
-20.0511 -13.6266 -3.67766 
-73.5596 -13.6266 27.9395 
40.8324 -13.6266 -49.6479 
-67.3753 -13.6266 -38.7364 
-63.2419 -13.6266 2.34689 
19.5018 -13.6266 -104.818 
-75.896 -13.6266 -40.5794 
-2.07401 -13.6266 -77.9504 
93.4716 -13.6266 -100.748 
-52.9031 -13.6266 -74.1248 
-40.6392 -13.6266 -25.1445 
-75.1398 -13.6266 -12.6897 
-26.4648 -13.6266 -81.8229 
45.0975 -13.6266 -105.75 
-114.18 -13.6266 13.2494 
-17.8387 -13.6266 -54.539 
-63.0544 -13.6266 -27.2339 
-44.244 -13.6266 -12.3754 
-86.6303 -13.6266 -2.28947 
-67.4585 -13.6266 -33.9263 
41.3473 -13.6266 -46.5644 
-70.22 -13.6266 36.6518 
-113.911 -13.6266 -24.6635 
-46.9208 -13.6266 -75.2142 
-93.5932 -13.6266 55.3631 
-93.5944 -13.6266 83.9585 
43.0125 -13.6266 -54.1132 
-117.57 -13.6266 -46.1596 
-51.3133 -13.6266 -37.0562 
-96.5635 -13.6266 3.54527 
-76.2363 -13.6266 -102.508 
-92.316 -13.6266 36.0069 
-114.25 -13.6266 -9.62807 
-20.3067 -13.6266 -23.1981 
59.5587 -13.6266 -108.019 
-74.4217 -13.6266 -89.4132 
80.0111 -13.6266 -102.111 
12.7987 -13.6266 -109.742 
-54.8432 -13.6266 33.5522 
-24.2467 -13.6266 -68.5647 
-8.5751 -13.6266 -53.2508 
-52.1502 -13.6266 -76.865 
61.8018 -13.6266 -107.961 
-91.4945 -13.6266 66.6869 
73.6653 -13.6266 -88.3044 
-63.8071 -13.6266 -18.5074 
-46.7583 -13.6266 -67.0052 
-77.2714 -13.6266 46.335 
29.5215 -13.6266 -91.0219 
36.5836 -13.6266 -42.4448 
-61.0328 -13.6266 -63.6149 
-25.7128 -13.6266 7.43709 
-90.3252 -13.6266 -86.8774 
-72.4324 -13.6266 -70.9453 
-63.8196 -13.6266 -91.6568 
-80.521 -13.6266 18.4508 
-26.8209 -13.6266 -98.6585 
-81.5755 -13.6266 36.1655 
2.42084 -13.6266 -65.9309 
-92.3483 -13.6266 40.9049 
-36.0155 -13.6266 -76.9222 
-37.6599 -13.6266 -49.6548 
82.0194 -13.6266 -93.3555 
24.5092 -13.6266 -48.2246 
-57.1111 -13.6266 -84.2342 
-23.6561 -13.6266 -54.1133 
-87.7631 -13.6266 -73.0774 
100.601 -13.6266 -112.443 
-105.727 -13.6266 -108.966 
-99.7305 -13.6266 -29.4746 
84.7843 -13.6266 -86.9383 
-111.292 -13.6266 -33.4463 
-86.1396 -13.6266 69.2574 
-85.4039 -13.6266 -25.0335 
-40.1361 -13.6266 -41.1618 
-115.429 -13.6266 20.4344 
-106.453 -13.6266 -23.5481 
-26.9062 -13.6266 -70.5612 
-37.3246 -13.6266 22.837 
-40.0932 -13.6266 20.6253 
-97.6474 -13.6266 -59.9333 
-96.0257 -13.6266 89.076 
-88.2647 -13.6266 67.8143 
-60.5484 -13.6266 35.9354 
-16.9193 -13.6266 -119.252 
-10.1878 -13.6266 -99.5635 
-51.7004 -13.6266 -85.3027 
-18.2206 -13.6266 -67.0673 
36.468 -13.6266 -44.0214 
-66.8433 -13.6266 -73.3283 
9.00076 -13.6266 -44.6981 
-93.5027 -13.6266 -42.5536 
-7.55908 -13.6266 -101.501 
39.4905 -13.6266 -48.8678 
-51.3477 -13.6266 -96.3268 
-74.4053 -13.6266 31.8882 
43.0809 -13.6266 -94.2362 
-6.1027 -13.6266 -76.1553 
24.7512 -13.6266 -110.649 
-91.6673 -13.6266 -99.1002 
41.5221 -13.6266 -41.1419 
-90.1231 -13.6266 -29.8683 
-69.4676 -13.6266 -105.635 
-34.1061 -13.6266 -15.2906 
-78.3894 -13.6266 -18.2766 
-82.0683 -13.6266 -4.24789 
-65.7569 -13.6266 -108.87 
-29.2814 -13.6266 -28.6007 
-56.9948 -13.6266 -99.6421 
-62.882 -13.6266 60.7987 
1.51575 -13.6266 -40.8659 
-92.0181 -13.6266 -85.9599 
-95.9327 -13.6266 -4.83347 
-38.5476 -13.6266 -52.4865 
-97.7629 -13.6266 -37.4443 
-97.1009 -13.6266 95.3532 
-86.5915 -13.6266 -40.2509 
10.6715 -13.6266 -103.278 
-86.8611 -13.6266 -48.7782 
26.6509 -13.6266 -46.8752 
-112.437 -13.6266 64.8405 
-65.1727 -13.6266 47.9556 
-35.1126 -13.6266 -30.7176 
-51.0651 -13.6266 -12.3485 
-16.1325 -13.6266 -105.097 
-35.637 -13.6266 -19.965 
-21.549 -13.6266 -51.316 
-7.42291 -13.6266 -96.5999 
-41.3697 -13.6266 -82.3492 
-2.38985 -13.6266 -95.937 
-53.3755 -13.6266 -45.7676 
-52.0497 -13.6266 -97.2993 
-3.07283 -13.6266 -5.22416 
-3.62076 -13.6266 -115.152 
-30.0515 -13.6266 -4.32841 
-29.5567 -13.6266 5.55694 
-51.6527 -13.6266 -9.49713 
98.4862 -13.6266 -100.524 
3.95075 -13.6266 -94.359 
-13.0292 -13.6266 10.8827 
-49.7743 -13.6266 -33.0836 
3.73604 -13.6266 -54.1729 
-79.5714 -13.6266 25.6738 
37.5212 -13.6266 -51.1907 
-110.933 -13.6266 45.9228 
-114.202 -13.6266 -66.526 
69.0487 -13.6266 -71.7914 
68.8012 -13.6266 -69.551 
-107.92 -13.6266 -44.5926 
-98.7874 -13.6266 17.1779 
-118.423 -13.6266 -92.1969 
-69.6763 -13.6266 -49.4454 
-75.704 -13.6266 -53.7775 
87.5251 -13.6266 -101.164 
-8.769 -13.6266 -27.0154 
-97.437 -13.6266 59.2125 
-100.75 -13.6266 -43.6543 
-52.7016 -13.6266 -90.5298 
-102.451 -13.6266 -77.6108 
-91.4084 -13.6266 -91.0075 
78.4658 -13.6266 -95.5355 
96.5167 -13.6266 -103.165 
-87.7768 -13.6266 12.2061 
23.731 -13.6266 -103.829 
19.6723 -13.6266 -31.1901 
-30.9714 -13.6266 -120.266 
-12.4367 -13.6266 -20.8665 
10.8174 -13.6266 -21.0699 
-41.1873 -13.6266 -104.876 
-52.4777 -13.6266 -18.7243 
-56.3069 -13.6266 -59.5098 
-106.041 -13.6266 -72.5248 
44.0363 -13.6266 -54.8521 
-31.2743 -13.6266 -72.6776 
-37.4045 -13.6266 -92.3588 
-88.6928 -13.6266 31.0726 
-69.6133 -13.6266 -108.693 
-116.519 -13.6266 -48.5027 
-37.5551 -13.6266 -102.784 
44.8645 -13.6266 -46.0057 
113.013 -13.6266 -118.253 
-109.989 -13.6266 -96.0579 
-29.3628 -13.6266 -115.245 
-118.104 -13.6266 73.8479 
-76.628 -13.6266 -117.541 
63.875 -13.6266 -106.114 
49.1826 -13.6266 -49.0167 
47.4928 -13.6266 -106.189 
-51.0207 -13.6266 -110.691 
-118.79 -13.6266 89.0076 
5.29401 -13.6266 -63.0289 
-90.194 -13.6266 5.78015 
-39.7791 -13.6266 -86.5773 
8.9928 -13.6266 -85.2001 
-104.738 -13.6266 -1.79922 
-5.57487 -13.6266 -35.8087 
-58.6926 -13.6266 -104.247 
85.2404 -13.6266 -116.196 
-46.9149 -13.6266 -42.0447 
-95.6769 -13.6266 85.3288 
-58.8174 -13.6266 -12.0895 
-99.5953 -13.6266 -85.0649 
28.0052 -13.6266 -39.3398 
-62.2146 -13.6266 -13.5501 
-73.5974 -13.6266 -6.03375 
-49.7583 -13.6266 2.16015 
-61.5028 -13.6266 19.8721 
-110.977 -13.6266 -24.4392 
-59.6238 -13.6266 -59.048 
-32.5927 -13.6266 23.374 
-83.0563 -13.6266 -60.1432 
-51.0949 -13.6266 -113.575 
-7.26828 -13.6266 -110.507 
-14.8987 -13.6266 -68.5738 
-51.1147 -13.6266 -32.1545 
-112.422 -13.6266 102.461 
19.0618 -13.6266 -55.0903 
-98.1671 -13.6266 -44.922 
-63.5668 -13.6266 -47.4963 
-115.286 -13.6266 14.4386 
-50.0805 -13.6266 -47.942 
-16.0505 -13.6266 -65.8706 
-25.6646 -13.6266 -67.9819 
-77.4293 -13.6266 -68.3707 
-58.093 -13.6266 10.9719 
-72.3375 -13.6266 -50.9962 
95.1727 -13.6266 -116.777 
-59.8294 -13.6266 7.655 
13.966 -13.6266 -83.38 
-99.276 -13.6266 -12.9067 
-83.0704 -13.6266 -3.68656 
-109.002 -13.6266 -0.404144 
-69.875 -13.6266 14.6042 
-96.1268 -13.6266 -120.064 
-105.932 -13.6266 -59.3092 
23.847 -13.6266 -41.5323 
1.51085 -13.6266 -114.967 
76.2118 -13.6266 -78.1014 
-54.0656 -13.6266 52.5281 
-110.283 -13.6266 -3.95524 
14.3114 -13.6266 -91.3095 
14.4342 -13.6266 -67.9913 
-61.4912 -13.6266 19.1938 
-17.4094 -13.6266 -110.415 
-102.957 -13.6266 -24.542 
-22.4746 -13.6266 -22.6388 
-70.1694 -13.6266 -22.1438 
65.9422 -13.6266 -118.679 
-49.8935 -13.6266 17.6821 
-77.4088 -13.6266 8.52898 
73.4336 -13.6266 -101.37 
-113.469 -13.6266 -24.372 
-117.303 -13.6266 85.8047 
1.88888 -13.6266 -75.6441 
-115.58 -13.6266 -99.7162 
-85.4288 -13.6266 -120.669 
-85.0431 -13.6266 -114.527 
-87.7342 -13.6266 -39.9904 
1.74031 -13.6266 -111.353 
70.639 -13.6266 -119.848 
44.7218 -13.6266 -66.8254 
-100.291 -13.6266 62.2973 
-57.8701 -13.6266 13.9001 
-57.6009 -13.6266 -10.8942 
77.8259 -13.6266 -87.0997 
-46.8897 -13.6266 45.1036 
-98.2422 -13.6266 94.3435 
-105.316 -13.6266 -15.5312 
2.71031 -13.6266 -18.0717 
-90.4326 -13.6266 -24.0208 
-9.75307 -13.6266 -5.30828 
-49.7552 -13.6266 -69.5002 
33.7486 -13.6266 -106.055 
-32.3998 -13.6266 -32.6875 
-89.3042 -13.6266 -95.8233 
-65.6015 -13.6266 49.059 
-55.2449 -13.6266 -85.0824 
-116.498 -13.6266 -37.9809 
-78.2926 -13.6266 -113.012 
-110.3 -13.6266 45.3655 
-13.3191 -13.6266 -85.1939 
-86.2862 -13.6266 85.4194 
-106.218 -13.6266 -89.4272 
-115.315 -13.6266 40.2426 
-26.1623 -13.6266 -33.769 
69.596 -13.6266 -89.0893 
31.3154 -13.6266 -49.4089 
-75.3942 -13.6266 28.8866 
29.8973 -13.6266 -73.6337 
-49.9458 -13.6266 -63.8226 
50.3038 -13.6266 -61.8645 
-88.2866 -13.6266 81.1831 
42.8047 -13.6266 -52.1291 
86.5119 -13.6266 -111.069 
-102.773 -13.6266 38.2696 
-50.0517 -13.6266 -16.0765 
-55.3998 -13.6266 -116.641 
73.7649 -13.6266 -112.441 
73.7181 -13.6266 -107.712 
-104.726 -13.6266 33.5107 
-26.5219 -13.6266 -84.0714 
-59.8515 -13.6266 9.40622 
-96.6874 -13.6266 -32.7263 
-56.449 -13.6266 39.5234 
20.8336 -13.6266 -42.6408 
2.01013 -13.6266 -57.6637 
46.0559 -13.6266 -85.9786 
-57.2274 -13.6266 -29.3922 
-75.4808 -13.6266 -101.398 
-118.649 -13.6266 4.74564 
-27.9177 -13.6266 -75.389 
-85.4466 -13.6266 -94.1073 
31.0222 -13.6266 -44.0843 
13.9715 -13.6266 -80.0633 
-42.7665 -13.6266 -113.836 
-97.5299 -13.6266 80.3236 
-11.084 -13.6266 -71.3016 
-75.1927 -13.6266 -118.307 
-38.8941 -13.6266 -101.041 
-92.2395 -13.6266 -88.787 
-117.519 -13.6266 62.3696 
96.4373 -13.6266 -115.117 
-80.3759 -13.6266 -7.46109 
-96.5727 -13.6266 -49.1586 
-35.1986 -13.6266 25.5499 
59.5755 -13.6266 -109.016 
-41.8742 -13.6266 -32.9558 
-50.0833 -13.6266 -53.1733 
-85.0361 -13.6266 -117.053 
12.9962 -13.6266 -105.383 
-98.6088 -13.6266 -109.109 
-85.202 -13.6266 -5.11632 
-108.08 -13.6266 82.0525 
13.1868 -13.6266 -90.9484 
-60.3597 -13.6266 -36.9103 
-63.6815 -13.6266 5.30008 
-80.3403 -13.6266 11.297 
32.1193 -13.6266 -91.5064 
19.615 -13.6266 -50.6274 
-48.081 -13.6266 -2.05691 
21.08 -13.6266 -70.1729 
-18.6337 -13.6266 -95.4232 
-96.7767 -13.6266 -79.0545 
-95.0847 -13.6266 -69.6518 
26.7463 -13.6266 -107.37 
-11.8532 -13.6266 -73.0069 
-121.312 -13.6266 -25.0781 
-66.5683 -13.6266 -110.599 
55.7944 -13.6266 -116.212 
-75.0651 -13.6266 -115.689 
-56.8569 -13.6266 -76.3917 
-115.453 -13.6266 53.2317 
-99.2621 -13.6266 -23.4552 
18.8492 -13.6266 -96.8184 
-85.0581 -13.6266 -114.995 
16.6491 -13.6266 -111.771 
-43.4409 -13.6266 -75.8759 
-76.4405 -13.6266 -112.132 
-120.647 -13.6266 89.2366 
30.8806 -13.6266 -101.018 
26.7468 -13.6266 -113.381 
-10.1155 -13.6266 -9.94755 
-57.2384 -13.6266 5.27335 
-90.3226 -13.6266 -90.3105 
-113.037 -13.6266 47.2169 
-75.6804 -13.6266 -99.949 
-69.3961 -13.6266 67.3546 
-92.9815 -13.6266 -48.1347 
-113.172 -13.6266 111.535 
-54.3006 -13.6266 51.4852 
-64.8771 -13.6266 2.01939 
-76.904 -13.6266 -16.5124 
-86.2153 -13.6266 -77.9949 
-106.09 -13.6266 -65.7849 
-15.67 -13.6266 -5.41384 
-105.744 -13.6266 -29.8523 
-86.6944 -13.6266 -23.8467 
-33.8048 -13.6266 -110.572 
-109.441 -13.6266 94.7916 
-22.77 -13.6266 -24.6125 
2.55085 -13.6266 -53.4372 
-94.7109 -13.6266 40.2521 
-69.2406 -13.6266 54.0819 
-57.7694 -13.6266 -120.14 
-80.3883 -13.6266 -12.427 
-41.7562 -13.6266 -73.3703 
13.5965 -13.6266 -25.5818 
-37.3475 -13.6266 -82.0881 
18.5416 -13.6266 -82.6039 
-98.8061 -13.6266 66.5392 
-114.273 -13.6266 98.5203 
89.2815 -13.6266 -118.689 
42.1249 -13.6266 -72.7517 
-111.074 -13.6266 -65.1682 
-114.208 -13.6266 54.0064 
-112.808 -13.6266 -39.1921 
-48.7524 -13.6266 18.8971 
41.999 -13.6266 -117.047 
-111.658 -13.6266 -38.583 
-31.1521 -13.6266 -36.9605 
-96.5101 -13.6266 -118.76 
-81.2214 -13.6266 -109.421 
-25.6201 -13.6266 -26.0998 
67.0324 -13.6266 -95.8415 
-74.1922 -13.6266 -97.9738 
-45.6184 -13.6266 42.3669 
58.0426 -13.6266 -104.032 
-2.80292 -13.6266 -105.768 
-64.4813 -13.6266 -83.22 
44.7073 -13.6266 -109.427 
-83.9139 -13.6266 -51.0181 
-40.7125 -13.6266 -53.6851 
-84.9614 -13.6266 -54.8188 
12.0995 -13.6266 -76.0691 
-20.3699 -13.6266 -60.6186 
-109.957 -13.6266 -59.7832 
-115.261 -13.6266 93.3389 
-5.72533 -13.6266 -81.9226 
-79.8886 -13.6266 -111.789 
-75.8759 -13.6266 -15.0998 
-61.4835 -13.6266 -64.3782 
-5.36926 -13.6266 -23.5444 
-108.811 -13.6266 -112.498 
18.0708 -13.6266 -68.429 
13.7575 -13.6266 -16.1711 
-94.2869 -13.6266 -59.3047 
-62.0612 -13.6266 -42.9704 
-81.3014 -13.6266 -108.143 
-68.5243 -13.6266 1.07355 
-22.7201 -13.6266 1.33831 
-74.8095 -13.6266 0.0894165 
-10.3046 -13.6266 -82.3792 
-113.23 -13.6266 -116.628 
-84.7321 -13.6266 -11.6339 
-119.677 -13.6266 91.2975 
-20.8109 -13.6266 12.9741 
-89.8665 -13.6266 28.9969 
-27.496 -13.6266 -77.3555 
-21.6633 -13.6266 -104.954 
-14.0627 -13.6266 -27.3604 
70.1962 -13.6266 -19.7322 
21.7317 -13.6266 23.3365 
46.512 -13.6266 88.3375 
-86.4727 -13.6266 118.527 
117.157 -13.6266 17.0611 
108.862 -13.6266 58.113 
57.3983 -13.6266 79.0106 
69.868 -13.6266 93.7777 
87.2133 -13.6266 -23.7629 
16.7418 -13.6266 25.3575 
49.9705 -13.6266 46.6905 
-49.4474 -13.6266 77.6386 
118.21 -13.6266 103.326 
26.112 -13.6266 100.787 
107.941 -13.6266 105.186 
9.96157 -13.6266 17.3033 
61.1393 -13.6266 -58.1139 
107.22 -13.6266 35.7008 
106.656 -13.6266 33.3196 
25.1376 -13.6266 -17.0748 
89.2725 -13.6266 82.2171 
45.6183 -13.6266 110.869 
100.088 -13.6266 -44.9809 
-13.8615 -13.6266 37.5642 
117.322 -13.6266 -95.6272 
-59.1938 -13.6266 70.8491 
-56.9528 -13.6266 91.7906 
19.9149 -13.6266 103.725 
1.3024 -13.6266 66.2279 
118.696 -13.6266 -59.806 
75.3311 -13.6266 28.7546 
116.019 -13.6266 -32.3964 
-31.5173 -13.6266 35.3667 
-2.66374 -13.6266 43.1978 
73.633 -13.6266 -50.0288 
-40.8719 -13.6266 120.058 
-1.61008 -13.6266 119.544 
-35.451 -13.6266 42.7277 
106.647 -13.6266 106.082 
96.4065 -13.6266 23.6036 
55.4959 -13.6266 -42.5608 
94.0795 -13.6266 -28.5237 
49.2684 -13.6266 91.6833 
48.0936 -13.6266 4.34729 
-82.6575 -13.6266 95.817 
-80.5127 -13.6266 117.97 
67.9141 -13.6266 62.0987 
59.9988 -13.6266 18.3673 
26.7018 -13.6266 110.693 
68.7329 -13.6266 42.964 
74.959 -13.6266 89.4821 
66.5714 -13.6266 7.0372 
87.1987 -13.6266 -5.83987 
93.5478 -13.6266 67.756 
56.965 -13.6266 -6.06387 
9.06736 -13.6266 13.1228 
68.1623 -13.6266 88.8696 
74.188 -13.6266 -47.0573 
-84.541 -13.6266 97.0564 
-41.0693 -13.6266 44.1729 
-19.3242 -13.6266 59.1519 
15.6037 -13.6266 62.782 
-38.4328 -13.6266 97.1795 
90.5801 -13.6266 68.3238 
112.677 -13.6266 98.8297 
106.312 -13.6266 -28.5443 
61.9644 -13.6266 29.4271 
-85.8412 -13.6266 111.62 
76.0244 -13.6266 -41.71 
33.3937 -13.6266 97.394 
-19.5831 -13.6266 96.5035 
20.6963 -13.6266 -9.05966 
-13.892 -13.6266 68.771 
59.2387 -13.6266 -46.0196 
86.0407 -13.6266 -46.2234 
14.699 -13.6266 7.19027 
62.8212 -13.6266 100.401 
108.646 -13.6266 72.4927 
-18.8153 -13.6266 64.6808 
22.146 -13.6266 46.6132 
101.558 -13.6266 58.5193 
20.0723 -13.6266 -18.6599 
-61.6884 -13.6266 109.329 
51.6705 -13.6266 -5.2807 
30.6045 -13.6266 88.0525 
97.3426 -13.6266 13.2188 
62.5193 -13.6266 -35.8763 
91.8717 -13.6266 35.1842 
119.264 -13.6266 -69.153 
117.26 -13.6266 -115.3 
69.6769 -13.6266 116.845 
-80.0311 -13.6266 111.139 
-51.0149 -13.6266 106.586 
-26.631 -13.6266 33.8891 
112.193 -13.6266 56.0419 
-32.0853 -13.6266 75.9713 
23.3834 -13.6266 24.6122 
105.083 -13.6266 -84.0255 
37.8148 -13.6266 109.771 
21.8872 -13.6266 4.15884 
99.3811 -13.6266 3.62064 
77.4868 -13.6266 99.4177 
76.7742 -13.6266 -30.0837 
90.6931 -13.6266 -19.7909 
112.52 -13.6266 6.48128 
111.656 -13.6266 -34.4308 
-86.2276 -13.6266 119.408 
104.246 -13.6266 20.4582 
-43.3689 -13.6266 119.549 
93.2944 -13.6266 77.2536 
116.086 -13.6266 93.0104 
50.4528 -13.6266 61.9903 
-15.7793 -13.6266 20.0509 
-8.41454 -13.6266 27.3093 
-71.4828 -13.6266 90.781 
-16.7886 -13.6266 92.5385 
80.8475 -13.6266 -63.5758 
111.131 -13.6266 33.6533 
93.049 -13.6266 23.7849 
101.906 -13.6266 34.2725 
88.2684 -13.6266 37.9177 
40.7522 -13.6266 19.1832 
103.829 -13.6266 -39.696 
74.7476 -13.6266 -60.2277 
-58.6611 -13.6266 62.6186 
74.7203 -13.6266 54.4977 
51.9828 -13.6266 -24.2953 
78.028 -13.6266 -10.0639 
107.832 -13.6266 -58.0618 
-9.14188 -13.6266 118.214 
15.1188 -13.6266 72.2449 
119.771 -13.6266 -68.1908 
25.8728 -13.6266 41.0127 
-12.1531 -13.6266 97.6706 
-19.1289 -13.6266 91.6347 
118.77 -13.6266 -2.37148 
52.7282 -13.6266 87.9082 
91.8024 -13.6266 -89.4776 
91.837 -13.6266 -63.02 
60.3963 -13.6266 96.9288 
67.3839 -13.6266 -22.3172 
42.8483 -13.6266 -12.9629 
93.2784 -13.6266 -30.401 
101.446 -13.6266 -36.8273 
10.9813 -13.6266 72.1383 
92.6076 -13.6266 -40.4653 
51.3351 -13.6266 -33.8067 
108.069 -13.6266 -69.0049 
79.4515 -13.6266 7.44122 
15.1278 -13.6266 22.9118 
-43.7906 -13.6266 116.988 
30.8712 -13.6266 69.9509 
89.8116 -13.6266 -68.1727 
105.068 -13.6266 87.9757 
67.2293 -13.6266 109.254 
83.9171 -13.6266 -39.5626 
52.7438 -13.6266 65.7331 
77.5608 -13.6266 102.195 
36.7814 -13.6266 119.919 
67.7837 -13.6266 -57.8055 
-47.1913 -13.6266 72.3788 
-81.5777 -13.6266 110.881 
65.5959 -13.6266 85.7999 
93.5037 -13.6266 91.709 
29.3516 -13.6266 58.6722 
93.6279 -13.6266 -33.2939 
-35.2888 -13.6266 43.9777 
-94.8642 -13.6266 116.061 
-22.717 -13.6266 91.949 
110.038 -13.6266 -41.2007 
15.0465 -13.6266 4.83387 
-5.89878 -13.6266 52.7139 
-4.75521 -13.6266 90.746 
57.3289 -13.6266 -54.6588 
-33.5099 -13.6266 64.9734 
50.9608 -13.6266 4.57636 
76.3435 -13.6266 8.8979 
93.3295 -13.6266 21.8426 
-20.5764 -13.6266 63.0109 
111.834 -13.6266 55.1261 
72.9736 -13.6266 -18.7234 
68.9641 -13.6266 16.1838 
43.8912 -13.6266 -1.22308 
79.2598 -13.6266 116.105 
-41.5195 -13.6266 93.7072 
30.9692 -13.6266 119.824 
99.9361 -13.6266 -32.1129 
113.079 -13.6266 -3.01223 
95.6598 -13.6266 83.8506 
41.3976 -13.6266 84.528 
98.9016 -13.6266 98.7033 
74.99 -13.6266 22.7939 
98.1646 -13.6266 12.7957 
-42.3123 -13.6266 99.2732 
47.2536 -13.6266 47.315 
79.5465 -13.6266 -5.87288 
9.89875 -13.6266 9.80281 
61.4792 -13.6266 76.8863 
-103.94 -13.6266 107.816 
71.926 -13.6266 115.527 
52.8491 -13.6266 60.7742 
-13.1034 -13.6266 70.0562 
43.4775 -13.6266 -5.73515 
117.232 -13.6266 -39.8107 
57.1705 -13.6266 -54.9745 
74.6014 -13.6266 25.0775 
98.5135 -13.6266 -22.9903 
-26.3346 -13.6266 91.1244 
-11.8681 -13.6266 74.1622 
45.0201 -13.6266 -32.0465 
60.4483 -13.6266 15.9842 
114.733 -13.6266 39.969 
43.755 -13.6266 75.7372 
85.7668 -13.6266 114.748 
-85.3818 -13.6266 93.5666 
53.3662 -13.6266 -31.5536 
102.483 -13.6266 -81.4136 
-39.3904 -13.6266 97.2854 
-65.5596 -13.6266 66.2643 
33.9969 -13.6266 -4.17727 
-31.5571 -13.6266 89.975 
22.1479 -13.6266 3.43058 
43.1665 -13.6266 -16.0642 
93.8677 -13.6266 11.1151 
-77.9756 -13.6266 107.82 
64.6021 -13.6266 101.404 
108.246 -13.6266 -53.3126 
91.4211 -13.6266 -49.0518 
-60.3877 -13.6266 99.1601 
99.7396 -13.6266 -83.0602 
103.215 -13.6266 29.6993 
9.43393 -13.6266 72.5135 
116.522 -13.6266 -77.7277 
58.6799 -13.6266 58.0338 
55.0779 -13.6266 5.70831 
41.4455 -13.6266 75.7162 
104.446 -13.6266 -29.9844 
110.69 -13.6266 -9.03552 
108.617 -13.6266 14.4859 
77.0891 -13.6266 6.55422 
13.3198 -13.6266 4.27262 
121.677 -13.6266 -53.4686 
-49.5092 -13.6266 67.6714 
117.695 -13.6266 -49.0748 
23.4064 -13.6266 64.1987 
104.51 -13.6266 -57.9933 
51.528 -13.6266 -3.57963 
90.3556 -13.6266 -11.4076 
28.803 -13.6266 38.6743 
108.129 -13.6266 110.058 
46.8622 -13.6266 -34.5342 
114.296 -13.6266 44.9486 
42.1313 -13.6266 70.0534 
-2.46028 -13.6266 23.1649 
87.822 -13.6266 117.96 
120.42 -13.6266 -69.4962 
-70.8709 -13.6266 92.5228 
84.1429 -13.6266 -30.1559 
83.9231 -13.6266 6.89684 
72.4658 -13.6266 -54.2909 
2.75469 -13.6266 44.9277 
115.949 -13.6266 -49.3574 
40.4677 -13.6266 103.415 
47.7211 -13.6266 83.1826 
98.6659 -13.6266 52.5147 
117.676 -13.6266 36.0895 
89.4425 -13.6266 14.6636 
-35.2181 -13.6266 111.804 
121.598 -13.6266 86.5777 
3.62962 -13.6266 21.6357 
119.796 -13.6266 22.2714 
110.952 -13.6266 -69.4223 
79.9014 -13.6266 -8.21924 
27.4267 -13.6266 4.25928 
-54.9046 -13.6266 119.573 
5.08128 -13.6266 13.8976 
77.7528 -13.6266 80.4196 
57.7205 -13.6266 -16.7295 
117.377 -13.6266 48.1631 
52.1532 -13.6266 17.1918 
77.5479 -13.6266 -74.7092 
-8.21059 -13.6266 94.7359 
36.9609 -13.6266 96.6682 
1.66925 -13.6266 22.2905 
18.6965 -13.6266 109.487 
-106.437 -13.6266 116.699 
-19.1009 -13.6266 74.999 
29.9942 -13.6266 3.67836 
81.6427 -13.6266 -21.8529 
99.6945 -13.6266 76.3834 
104.065 -13.6266 -76.7269 
49.1968 -13.6266 -5.26839 
-77.1678 -13.6266 111.014 
-100.924 -13.6266 108.988 
19.1061 -13.6266 88.5933 
92.4634 -13.6266 -24.9757 
-64.2406 -13.6266 91.6999 
107.635 -13.6266 -79.992 
117.857 -13.6266 3.78292 
33.7223 -13.6266 77.6747 
89.9912 -13.6266 76.4886 
86.3911 -13.6266 62.5495 
-5.09131 -13.6266 89.9944 
77.0887 -13.6266 119.064 
45.2198 -13.6266 -16.1623 
73.2958 -13.6266 9.32004 
75.5445 -13.6266 102.161 
-39.0503 -13.6266 65.1718 
102.029 -13.6266 10.472 
89.8596 -13.6266 62.9327 
60.3361 -13.6266 -28.475 
52.8181 -13.6266 74.8289 
39.4554 -13.6266 57.9544 
-24.8299 -13.6266 65.031 
-16.1214 -13.6266 83.757 
-52.188 -13.6266 78.6671 
92.9851 -13.6266 -75.553 
-44.2574 -13.6266 71.296 
-90.5641 -13.6266 107.16 
81.3044 -13.6266 -68.1638 
-45.3257 -13.6266 76.8043 
43.1242 -13.6266 47.0864 
43.8087 -13.6266 53.7241 
117.29 -13.6266 104.517 
-11.8282 -13.6266 99.9209 
100.961 -13.6266 10.0017 
-3.45764 -13.6266 78.0211 
16.8516 -13.6266 10.6505 
12.0239 -13.6266 69.0886 
-2.98154 -13.6266 47.1123 
21.6366 -13.6266 118.939 
59.2985 -13.6266 114.088 
65.7959 -13.6266 35.7422 
108.471 -13.6266 -99.5257 
-44.1817 -13.6266 102.971 
97.8709 -13.6266 -80.0768 
1.41747 -13.6266 39.2137 
44.63 -13.6266 80.9003 
-72.61 -13.6266 110.422 
106.209 -13.6266 -76.6284 
101.622 -13.6266 63.9751 
120.156 -13.6266 -24.4877 
63.6073 -13.6266 102.397 
30.9559 -13.6266 23.7322 
84.0154 -13.6266 70.4349 
102.656 -13.6266 107.662 
90.748 -13.6266 49.1687 
-33.0889 -13.6266 34.9489 
10.7949 -13.6266 106.113 
-58.8054 -13.6266 109.182 
29.849 -13.6266 67.4547 
92.3833 -13.6266 -30.0821 
92.2305 -13.6266 32.5348 
28.3443 -13.6266 77.2978 
100.568 -13.6266 10.5485 
79.5423 -13.6266 42.6007 
83.9174 -13.6266 18.0633 
15.9353 -13.6266 28.1593 
51.3278 -13.6266 31.0705 
61.5361 -13.6266 101.659 
96.6049 -13.6266 59.9346 
14.1977 -13.6266 5.50651 
46.5058 -13.6266 55.673 
-86.8854 -13.6266 102.466 
40.1799 -13.6266 86.4756 
13.3862 -13.6266 71.3558 
121.708 -13.6266 22.2478 
49.3592 -13.6266 -2.2865 
98.3166 -13.6266 86.6011 
-10.1933 -13.6266 104.48 
94.7252 -13.6266 -92.0969 
51.2306 -13.6266 68.2762 
7.28017 -13.6266 42.9997 
43.2412 -13.6266 -14.6137 
115.794 -13.6266 -23.9037 
23.7864 -13.6266 63.1061 
-26.5508 -13.6266 109.788 
55.9667 -13.6266 -30.2864 
99.8572 -13.6266 67.0995 
6.91193 -13.6266 11.4165 
24.1275 -13.6266 -20.5381 
94.7644 -13.6266 -43.5991 
-6.76659 -13.6266 10.9504 
-75.871 -13.6266 90.1152 
92.43 -13.6266 -18.6012 
45.0126 -13.6266 72.385 
68.9398 -13.6266 -53.6281 
44.4647 -13.6266 81.5058 
89.5135 -13.6266 -47.1073 
104.504 -13.6266 -24.2905 
89.4874 -13.6266 44.8987 
62.5598 -13.6266 -59.3419 
97.9887 -13.6266 43.8933 
82.4286 -13.6266 -16.6138 
-95.4549 -13.6266 105.053 
-9.25908 -13.6266 11.5089 
-6.89664 -13.6266 118.142 
50.6319 -13.6266 17.3791 
-52.2833 -13.6266 116.804 
116.478 -13.6266 -73.0057 
-19.836 -13.6266 29.2474 
-13.9194 -13.6266 68.5405 
-70.3696 -13.6266 99.2255 
30.0264 -13.6266 92.0555 
23.7454 -13.6266 99.0402 
-3.27506 -13.6266 99.7661 
55.8048 -13.6266 41.3412 
115.997 -13.6266 -36.3741 
-81.2651 -13.6266 87.6646 
84.1121 -13.6266 -43.2128 
47.3413 -13.6266 68.4226 
62.7291 -13.6266 17.1763 
56.8394 -13.6266 46.9829 
19.9543 -13.6266 106.013 
-11.8614 -13.6266 53.1175 
54.4281 -13.6266 -25.7966 
106.736 -13.6266 -73.4902 
110.177 -13.6266 10.5252 
77.9601 -13.6266 37.763 
66.3091 -13.6266 -37.9782 
62.5935 -13.6266 21.8573 
-29.4306 -13.6266 91.3299 
109.842 -13.6266 102.771 
75.6981 -13.6266 97.9153 
-11.7445 -13.6266 65.6418 
108.757 -13.6266 -69.6152 
16.2836 -13.6266 -1.58166 
115.764 -13.6266 -58.9377 
-75.9623 -13.6266 85.8325 
75.9526 -13.6266 -75.1773 
86.2882 -13.6266 -29.9482 
112.43 -13.6266 4.2611 
95.8337 -13.6266 -29.1942 
-87.5755 -13.6266 111.359 
112.539 -13.6266 29.6171 
101.562 -13.6266 53.0021 
-28.9252 -13.6266 80.8361 
42.0169 -13.6266 60.5476 
102.684 -13.6266 -95.6656 
-9.22359 -13.6266 120.587 
106.383 -13.6266 -93.466 
1.66986 -13.6266 8.38246 
116.207 -13.6266 117.982 
36.0279 -13.6266 64.6926 
103.788 -13.6266 98.2819 
-3.26562 -13.6266 118.954 
-77.6142 -13.6266 84.4896 
110.602 -13.6266 -40.9806 
-13.7455 -13.6266 90.9747 
21.1023 -13.6266 35.8671 
61.2541 -13.6266 -20.2848 
79.1911 -13.6266 95.4019 
-11.4251 -13.6266 100.471 
60.7282 -13.6266 -59.8767 
-63.7124 -13.6266 103.578 
66.6777 -13.6266 -16.187 
113.357 -13.6266 -1.82716 
22.05 -13.6266 41.6847 
-13.0624 -13.6266 85.1793 
3.36578 -13.6266 19.631 
112.372 -13.6266 -62.007 
110.234 -13.6266 -74.6192 
54.0218 -13.6266 77.3055 
107.119 -13.6266 -17.5831 
111.718 -13.6266 72.3454 
91.489 -13.6266 -59.398 
-11.6908 -13.6266 45.7848 
58.8657 -13.6266 -25.7892 
60.9239 -13.6266 1.45448 
81.0226 -13.6266 15.4232 
98.8253 -13.6266 21.7923 
90.9531 -13.6266 -50.4213 
35.7719 -13.6266 9.9086 
117.509 -13.6266 94.2834 
109.477 -13.6266 -12.9883 
77.9657 -13.6266 28.9606 
55.8732 -13.6266 -18.7736 
81.7633 -13.6266 -66.2981 
2.56548 -13.6266 107.157 
49.4868 -13.6266 49.9188 
77.8103 -13.6266 -70.2683 
4.76987 -13.6266 -4.08224 
6.9137 -13.6266 87.1298 
50.8419 -13.6266 -46.9585 
52.911 -13.6266 47.4853 
104.971 -13.6266 100.747 
-1.43828 -13.6266 53.4257 
106.3 -13.6266 72.0891 
-43.6246 -13.6266 112.873 
-13.4972 -13.6266 28.2861 
78.4186 -13.6266 -17.1509 
114.739 -13.6266 88.346 
51.5791 -13.6266 67.1123 
49.911 -13.6266 50.6129 
-23.0991 -13.6266 102.02 
95.6273 -13.6266 -88.2994 
69.3194 -13.6266 -62.0126 
106.524 -13.6266 19.0322 
-65.7332 -13.6266 69.6902 
-1.24802 -13.6266 19.7488 
59.7799 -13.6266 55.6994 
60.6822 -13.6266 -21.2387 
77.4575 -13.6266 -6.77477 
-70.7609 -13.6266 113.737 
81.4347 -13.6266 -43.7112 
66.8503 -13.6266 -42.928 
121.591 -13.6266 55.3061 
113.711 -13.6266 38.6889 
109.903 -13.6266 -18.3366 
76.2056 -13.6266 -42.0727 
82.6181 -13.6266 108.755 
43.2996 -13.6266 -2.30044 
4.87368 -13.6266 102.73 
-50.679 -13.6266 84.2646 
109.573 -13.6266 -47.1547 
40.2389 -13.6266 102.623 
-0.643745 -13.6266 90.8682 
112.995 -13.6266 -4.56904 
62.9955 -13.6266 -31.907 
40.5194 -13.6266 26.5785 
-80.3366 -13.6266 109.586 
-98.444 -13.6266 106.24 
43.1141 -13.6266 46.405 
117.244 -13.6266 -71.4006 
-61.2075 -13.6266 86.3371 
91.47 -13.6266 100.071 
84.4029 -13.6266 119.941 
63.1134 -13.6266 -15.3764 
-21.2668 -13.6266 111.83 
72.327 -13.6266 58.4375 
115.366 -13.6266 -63.3707 
-41.4233 -13.6266 79.2421 
-23.028 -13.6266 43.0733 
-46.3052 -13.6266 93.8252 
73.8177 -13.6266 25.3271 
68.9657 -13.6266 -2.12972 
22.2842 -13.6266 6.78059 
61.3133 -13.6266 53.8713 
98.5284 -13.6266 82.1021 
113.864 -13.6266 -39.6391 
81.2674 -13.6266 13.9329 
1.07758 -13.6266 27.9087 
21.7538 -13.6266 50.1702 
28.4793 -13.6266 73.1469 
-21.307 -13.6266 41.5219 
-34.686 -13.6266 75.8385 
-1.23869 -13.6266 4.00505 
29.1098 -13.6266 112.008 
55.7517 -13.6266 -54.428 
62.662 -13.6266 69.0186 
25.1361 -13.6266 68.0062 
111.411 -13.6266 -78.8905 
-70.0661 -13.6266 109.5 
79.6418 -13.6266 -70.2902 
52.4577 -13.6266 2.34076 
-8.33122 -13.6266 106.964 
69.3533 -13.6266 -63.6627 
40.6099 -13.6266 112.18 
-12.8898 -13.6266 80.9992 
-20.7848 -13.6266 113.93 
59.3826 -13.6266 113.586 
91.5246 -13.6266 -87.3466 
53.9056 -13.6266 -7.01705 
-17.2051 -13.6266 27.2202 
47.8283 -13.6266 65.8857 
-14.9516 -13.6266 68.7192 
101.465 -13.6266 -12.8914 
-45.6011 -13.6266 67.6095 
87.9911 -13.6266 71.6248 
78.4558 -13.6266 6.53558 
-45.7392 -13.6266 115.556 
81.6996 -13.6266 -33.6576 
66.8469 -13.6266 -26.6832 
57.8557 -13.6266 -53.2596 
29.3923 -13.6266 59.7463 
110.234 -13.6266 95.5081 
71.4939 -13.6266 11.8348 
25.3602 -13.6266 95.9476 
97.8694 -13.6266 -8.46775 
13.2334 -13.6266 25.7008 
-46.0772 -13.6266 52.1228 
111.419 -13.6266 49.3456 
84.4599 -13.6266 105.577 
99.3135 -13.6266 101.755 
-18.053 -13.6266 71.0235 
95.9421 -13.6266 -45.2733 
1.30278 -13.6266 46.584 
-24.7811 -13.6266 32.0444 
79.3187 -13.6266 -71.4426 
-66.6512 -13.6266 106.701 
18.3353 -13.6266 60.3833 
21.4213 -13.6266 21.6017 
-67.2444 -13.6266 107.757 
31.8905 -13.6266 -12.2022 
111.084 -13.6266 -12.5336 
65.6352 -13.6266 91.027 
-19.1725 -13.6266 93.9152 
41.3644 -13.6266 -25.8153 
81.5327 -13.6266 21.5412 
57.1232 -13.6266 110.941 
113.534 -13.6266 -65.1785 
-56.2356 -13.6266 73.0767 
94.078 -13.6266 -81.7877 
91.4267 -13.6266 -51.9935 
65.4079 -13.6266 98.269 
50.7237 -13.6266 -43.7075 
80.2671 -13.6266 34.3321 
0.766762 -13.6266 8.06382 
-34.01 -13.6266 95.5222 
107.741 -13.6266 26.4148 
74.6638 -13.6266 -57.6731 
49.9243 -13.6266 28.1234 
-3.67316 -13.6266 78.8139 
-46.0402 -13.6266 64.2655 
37.6808 -13.6266 7.52745 
109.026 -13.6266 -100.462 
115.487 -13.6266 74.6347 
111.542 -13.6266 28.7324 
121.252 -13.6266 -0.992165 
-14.8154 -13.6266 68.3815 
-5.89505 -13.6266 98.0407 
1.83904 -13.6266 112.631 
-2.94953 -13.6266 51.4834 
-33.4816 -13.6266 73.3082 
81.2428 -13.6266 -43.8616 
44.7931 -13.6266 58.3185 
-49.5683 -13.6266 62.8558 
44.9553 -13.6266 14.0266 
89.1277 -13.6266 93.7279 
39.193 -13.6266 14.3218 
60.0795 -13.6266 63.7957 
-1.74792 -13.6266 59.0676 
60.9553 -13.6266 6.75591 
91.8439 -13.6266 -7.98379 
82.6295 -13.6266 12.28 
83.7769 -13.6266 118.382 
-0.616463 -13.6266 73.4832 
-65.8393 -13.6266 107.938 
66.1588 -13.6266 80.9823 
-31.5232 -13.6266 38.696 
81.7157 -13.6266 -65.382 
-0.450317 -13.6266 50.9067 
100.769 -13.6266 -43.0191 
