ply
format ascii 1.0
comment Author: CloudCompare (TELECOM PARISTECH/EDF R&D)
obj_info Generated by CloudCompare!
element vertex 1794
property float x
property float y
property float z
end_header
108.252 -27.2532 64.382 
39.0613 -27.2532 -36.0133 
43.1585 -27.2532 112.336 
2.92455 -27.2532 83.5072 
76.8295 -27.2532 -36.9367 
93.9956 -27.2532 21.078 
87.754 -27.2532 -58.0162 
-21.0501 -27.2532 75.7556 
-13.4883 -27.2532 25.7326 
96.663 -27.2532 63.969 
34.843 -27.2532 95.4117 
106.945 -27.2532 -64.749 
27.1873 -27.2532 93.508 
66.3383 -27.2532 78.1416 
97.2337 -27.2532 -71.4935 
-39.4719 -27.2532 72.6811 
37.4713 -27.2532 45.7843 
-3.80734 -27.2532 5.75622 
63.4572 -27.2532 14.0567 
0.943199 -27.2532 42.9446 
32.9151 -27.2532 71.6789 
-19.6538 -27.2532 61.2489 
93.8808 -27.2532 -42.7594 
47.4605 -27.2532 55.9694 
86.3129 -27.2532 -30.6607 
54.2908 -27.2532 -10.1861 
35.1154 -27.2532 105.8 
6.15456 -27.2532 8.66427 
67.1777 -27.2532 70.9575 
63.0159 -27.2532 -59.9815 
85.7628 -27.2532 58.8442 
46.763 -27.2532 -10.2212 
34.7643 -27.2532 61.0303 
57.7487 -27.2532 38.1518 
79.1105 -27.2532 68.983 
63.5007 -27.2532 27.234 
62.6231 -27.2532 -18.9406 
98.2878 -27.2532 32.324 
-54.3314 -27.2532 110.801 
101.265 -27.2532 -46.4932 
121.861 -25.3765 25.1406 
121.861 -26.0407 113.74 
121.861 -24.8394 24.0007 
121.861 -23.5716 69.5369 
121.861 -23.6552 -18.0176 
121.861 -24.9367 98.676 
121.861 -25.079 -10.4323 
121.861 -26.8062 103.111 
121.861 -25.1771 -2.86543 
121.861 -25.7657 -75.4578 
121.861 -23.7255 -118.036 
121.861 -26.904 -85.6533 
121.861 -27.123 -110.795 
121.861 -25.4347 -4.08944 
121.861 -25.08 -92.7589 
121.861 -25.4386 -33.7826 
121.861 -25.9195 -93.2203 
-97.6853 -23.3599 36.8172 
-50.1827 -23.3599 98.8232 
-25.4089 -23.3599 -5.66253 
-27.9157 -23.3599 107.927 
-64.4733 -23.3599 3.36967 
52.6863 -23.3599 60.758 
-98.7323 -23.3599 -82.1404 
-78.1567 -23.3599 120.314 
-65.6387 -23.3599 95.4987 
-8.73429 -23.3599 69.2384 
-35.2168 -23.3599 -9.30737 
19.3333 -23.3599 44.9484 
-82.1326 -23.3599 11.3743 
-32.4639 -23.3599 92.4363 
-45.5866 -23.3599 113.36 
-46.7421 -23.3599 -7.10954 
62.6145 -23.3599 112.568 
-33.2129 -23.3599 72.6287 
-18.0406 -23.3599 40.4106 
-112.471 -23.3599 -84.4331 
-25.726 -23.3599 6.00131 
-10.2694 -23.3599 24.1398 
64.2941 -23.3599 92.1577 
-44.6867 -23.3599 73.3439 
-51.1396 -23.3599 -48.4029 
-100.665 -23.3599 12.1812 
-113.703 -23.3599 81.0786 
-19.4241 -23.3599 -10.3957 
-110.799 -23.3599 -24.5024 
-47.8958 -23.3599 -34.596 
-97.3339 -23.3599 24.3792 
-84.4689 -23.3599 97.3015 
-52.5098 -23.3599 -50.1194 
57.2666 -23.3599 97.8352 
59.6199 -23.3599 70.054 
-81.5856 -23.3599 -14.395 
-102.724 -23.3599 -71.9349 
23.4778 -23.3599 110.518 
6.19907 -23.3599 42.3819 
-32.8791 -23.3599 69.8109 
54.4988 -23.3599 60.7732 
-66.152 -23.3599 17.3502 
-72.0856 -23.3599 -9.92634 
-80.779 -23.3599 -11.1572 
-41.7825 -23.3599 62.8311 
-40.1878 -23.3599 -24.3845 
-78.9712 -23.3599 105.436 
-13.4274 -23.3599 104.795 
-28.509 -23.3599 65.3774 
9.40981 -23.3599 42.7425 
-85.1306 -23.3599 80.3749 
-84.8749 -23.3599 -24.9765 
3.8531 -23.3599 44.8152 
-33.1773 -23.3599 48.8384 
-62.9755 -23.3599 103.943 
-97.1558 -23.3599 -71.6722 
-85.4621 -23.3599 6.01927 
21.1353 -23.3599 42.0617 
30.5666 -23.3599 78.7071 
-61.5413 -23.3599 1.18238 
-72.19 -23.3599 115.991 
-48.9941 -23.3599 45.1486 
-60.2957 -23.3599 -45.8479 
-82.7361 -23.3599 92.7897 
-67.9676 -23.3599 90.0133 
-79.0807 -23.3599 -68.6525 
-116.17 -23.3599 48.1751 
27.2578 -23.3599 90.3257 
-42.785 -23.3599 -8.89799 
-43.7629 -23.3599 83.6184 
32.1859 -23.3599 120.036 
-23.1238 -23.3599 64.7292 
-65.9479 -23.3599 51.0525 
-35.0106 -23.3599 79.0969 
110.58 -23.3599 118.555 
-104.081 -23.3599 21.9467 
-89.7692 -23.3599 -28.2656 
-78.1331 -23.3599 70.0356 
-11.3634 -23.3599 15.053 
34.6502 -23.3599 103.981 
-88.172 -23.3599 6.32212 
-27.0781 -23.3599 112.147 
-58.1705 -23.3599 61.4665 
-104.548 -23.3599 74.3935 
-115.93 -23.3599 83.9378 
-117.253 -23.3599 -29.1129 
-93.5942 -23.3599 116.986 
-84.5659 -23.3599 49.9695 
-61.1763 -23.3599 101.678 
77.8637 -23.3599 92.6912 
-114.419 -23.3599 15.1924 
-59.7098 -23.3599 -6.70161 
-87.1199 -23.3599 -30.9374 
-93.6653 -23.3599 1.19673 
29.9714 -23.3599 75.7028 
-91.2167 -23.3599 55.6782 
62.3711 -23.3599 95.3245 
-70.1754 -23.3599 79.6014 
-20.3889 -23.3599 42.4046 
-62.7934 -23.3599 67.4903 
-78.4715 -23.3599 32.1407 
-65.5869 -23.3599 -22.3693 
-22.5846 -23.3599 23.3217 
-110.647 -23.3599 26.3301 
-113.496 -23.3599 9.47457 
-89.7139 -23.3599 -36.2713 
-87.2766 -23.3599 -41.2734 
33.1807 -23.3599 103.882 
-120.12 -23.3599 -31.8451 
-23.5981 -23.3599 -19.4737 
-0.916298 -23.3599 20.9823 
-77.8501 -23.3599 87.9549 
4.66287 -23.3599 62.8101 
-106.712 -23.3599 -43.1834 
-99.3148 -23.3599 66.9272 
-118.129 -23.3599 19.6085 
-79.9466 -23.3599 86.1357 
-83.0183 -23.3599 4.94776 
-85.2919 -23.3599 86.7068 
-96.3018 -23.3599 -85.3438 
28.646 -23.3599 63.4952 
-116.194 -23.3599 -19.5884 
-35.9408 -23.3599 51.0553 
16.6751 -23.3599 48.7271 
-73.399 -23.3599 17.2456 
16.1773 -23.3599 80.372 
-93.6842 -23.3599 98.3087 
-106.564 -23.3599 -37.2393 
-56.2205 -23.3599 30.8405 
-40.0021 -23.3599 65.1742 
-82.2134 -23.3599 -17.2623 
24.8279 -23.3599 94.2879 
-62.271 -23.3599 76.7431 
-108.103 -23.3599 -91.1562 
-106.223 -23.3599 -53.1074 
-46.8034 -23.3599 -39.0498 
-77.85 -23.3599 50.5086 
-92.5083 -23.3599 -43.346 
-24.566 -23.3599 -23.0251 
-81.2785 -23.3599 25.5827 
-29.9347 -23.3599 102.669 
-46.3397 -23.3599 21.8341 
-41.5527 -23.3599 15.5244 
-109.565 -23.3599 -106.87 
-75.3617 -23.3599 -53.0924 
-97.5294 -23.3599 80.0138 
-6.59296 -23.3599 116.978 
-52.4314 -23.3599 75.555 
21.8587 -23.3599 62.6525 
79.7985 -23.3599 93.9066 
43.3651 -23.3599 51.4514 
-74.0305 -23.3599 60.1249 
-56.9464 -23.3599 78.8509 
-85.5385 -23.3599 -79.7745 
29.0475 -23.3599 116.015 
-65.8594 -23.3599 -21.1995 
14.0295 -23.3599 17.8785 
-84.5376 -23.3599 -64.6731 
-34.2245 -23.3599 109.322 
-95.5284 -23.3599 -17.5431 
-41.3289 -23.3599 96.1422 
-47.6439 -23.3599 -7.81667 
-89.2832 -23.3599 -10.7676 
-112.244 -23.3599 115.6 
-31.9412 -23.3599 70.9317 
-81.9902 -23.3599 -21.4672 
-91.3613 -23.3599 77.6716 
15.6644 -23.3599 17.9676 
-69.5435 -23.3599 41.7579 
-6.79778 -23.3599 22.319 
-25.6247 -23.3599 19.409 
-109.901 -23.3599 116.715 
-3.81876 -23.3599 34.1879 
-74.4992 -23.3599 8.53526 
-45.8537 -23.3599 -20.4778 
2.38145 -23.3599 44.5423 
-120.065 -23.3599 8.39146 
-37.4832 -23.3599 60.3086 
-80.2455 -23.3599 51.6953 
25.5274 -23.3599 80.1205 
-92.9779 -23.3599 -75.954 
-119.524 -23.3599 -108.956 
-25.8414 -23.3599 100.141 
-97.1831 -23.3599 -72.424 
71.5215 -23.3599 113.09 
-5.52138 -23.3599 -3.76379 
-72.666 -23.3599 33.4417 
-33.9097 -23.3599 -7.32861 
68.7414 -23.3599 75.0538 
-55.4778 -23.3599 21.2044 
37.1979 -23.3599 95.9163 
-115.768 -23.3599 -56.1652 
-28.8164 -23.3599 112.068 
-100.794 -23.3599 -57.7185 
39.8887 -23.3599 89.5724 
-67.5441 -23.3599 104.22 
-44.2541 -23.3599 -24.1744 
17.939 -23.3599 79.5628 
-68.1035 -23.3599 -37.2452 
-112.67 -23.3599 -101.565 
-61.4779 -23.3599 58.5014 
-64.0463 -23.3599 55.09 
79.6738 -23.3599 86.0189 
-106.495 -23.3599 59.3708 
-19.6557 -23.3599 109.559 
-60.0583 -23.3599 101.367 
-101.058 -23.3599 -6.56442 
-38.1723 -23.3599 71.2045 
-89.6917 -23.3599 -88.1288 
-77.258 -23.3599 -63.6991 
-54.8403 -23.3599 -44.1551 
-83.9523 -23.3599 -29.1329 
-47.1238 -23.3599 39.5398 
-84.4645 -23.3599 -5.6554 
-14.7121 -23.3599 92.9726 
110.397 -23.3599 120.584 
-73.7464 -23.3599 108.935 
-117.919 -23.3599 -36.6369 
-55.1806 -23.3599 84.7167 
-112.015 -23.3599 -100.708 
-100.245 -23.3599 27.8368 
-101.837 -23.3599 -50.7529 
-56.1587 -23.3599 -9.08601 
-116.886 -23.3599 49.9608 
-91.3433 -23.3599 51.7266 
23.4931 -23.3599 87.6854 
-29.6155 -23.3599 39.7396 
-96.685 -23.3599 11.7851 
12.9868 -23.3599 55.549 
-77.7104 -23.3599 -5.27168 
53.7332 -23.3599 97.0196 
-46.2593 -23.3599 -3.89682 
-23.2259 -23.3599 50.5954 
-64.9735 -23.3599 64.1909 
92.0456 -23.3599 103.786 
-69.1312 -23.3599 -26.4198 
40.7706 -23.3599 83.5863 
-45.6481 -23.3599 -1.64413 
-42.097 -23.3599 118.08 
-16.9529 -23.3599 66.8002 
-71.471 -23.3599 -58.6679 
62.4662 -23.3599 96.4543 
24.2446 -23.3599 66.8452 
-8.26586 -23.3599 98.176 
73.2233 -23.3599 110.961 
-106.269 -23.3599 57.0522 
-88.1425 -23.3599 70.3478 
-69.0181 -23.3599 111.188 
-54.8795 -23.3599 -2.94176 
-24.0411 -23.3599 118.61 
-46.1397 -23.3599 9.50292 
-42.9137 -23.3599 104.885 
46.8744 -23.3599 55.4159 
-4.86626 -23.3599 56.5273 
-110.847 -23.3599 -16.6297 
-115.429 -23.3599 -105.025 
14.785 -23.3599 27.0695 
-64.3461 -23.3599 -9.1786 
-116.098 -23.3599 -34.0118 
-121.171 -23.3599 -13.3375 
-111.129 -23.3599 -3.85695 
3.37232 -23.3599 100.423 
-78.1397 -23.3599 91.4864 
40.8696 -23.3599 48.6602 
27.9985 -23.3599 115.538 
1.96465 -23.3599 2.24573 
1.82949 -23.3599 78.544 
-121.014 -23.3599 -78.7095 
-76.8165 -23.3599 68.295 
-97.0318 -23.3599 -47.3426 
-39.7329 -23.3599 60.3311 
-43.9959 -23.3599 7.06711 
-29.3969 -23.3599 -0.42334 
-47.6285 -23.3599 -7.50378 
58.5047 -23.3599 108.129 
-93.4799 -23.3599 34.1728 
-9.27015 -23.3599 86.3262 
-76.0058 -23.3599 -40.6475 
-116.027 -23.3599 34.8874 
-42.7355 -23.3599 99.4423 
-113.728 -23.3599 -89.411 
-82.8894 -23.3599 28.8663 
-53.4414 -23.3599 -17.7517 
-59.3827 -23.3599 60.6662 
18.3174 -23.3599 74.7324 
-1.32371 -23.3599 58.3319 
-59.8394 -23.3599 91.1423 
-44.98 -23.3599 -10.0923 
-80.217 -23.3599 86.6836 
-77.9775 -23.3599 22.9258 
-44.8965 -23.3599 75.8312 
-93.2645 -23.3599 -23.2541 
-68.9979 -23.3599 93.8041 
-58.6882 -23.3599 53.59 
-71.7091 -23.3599 -63.7856 
-13.6696 -23.3599 32.2293 
-85.0508 -23.3599 -45.5504 
-92.0528 -23.3599 -63.5909 
96.5871 -23.3599 107.39 
22.2411 -23.3599 64.2348 
1.45034 -23.3599 20.3981 
-117.915 -23.3599 -69.3696 
-41.2505 -23.3599 65.4805 
-101.988 -23.3599 66.5566 
-39.7771 -23.3599 71.7968 
-10.2011 -23.3599 119.234 
-117.491 -23.3599 -112.549 
76.3057 -23.3599 115.593 
-95.5913 -23.3599 50.693 
18.3634 -23.3599 29.6282 
-73.2882 -23.3599 38.7669 
-21.8865 -23.3599 115.911 
-105.132 -23.3599 83.3872 
103.261 -23.3599 116.967 
-98.5091 -23.3599 -89.2131 
-45.3277 -23.3599 72.1471 
59.1957 -23.3599 65.9839 
-10.113 -23.3599 34.2747 
-108.472 -23.3599 -63.7145 
-112.709 -23.3599 -89.3353 
-105.64 -23.3599 79.0838 
-96.3349 -23.3599 -80.4697 
-118.704 -23.3599 79.9886 
-46.7262 -23.3599 9.12199 
-105.496 -23.3599 116.24 
13.4595 -23.3599 115.53 
-86.29 -23.3599 7.19713 
-64.0316 -23.3599 -32.0714 
-79.5074 -23.3599 46.2318 
-88.2816 -23.3599 38.6964 
-53.3659 -23.3599 -47.5939 
-83.6116 -23.3599 38.4054 
-100.55 -23.3599 109.108 
-54.2523 -23.3599 35.7953 
0.179219 -23.3599 113.151 
-65.4997 -23.3599 61.3666 
-11.5697 -23.3599 75.9757 
-23.5151 -23.3599 -2.11335 
-119.883 -23.3599 -90.9107 
85.1128 -23.3599 93.6369 
21.0015 -23.3599 110.218 
-110.309 -23.3599 105.126 
77.534 -23.3599 100.388 
-113.068 -23.3599 78.7286 
-35.3934 -23.3599 50.0412 
-84.0194 -23.3599 120.345 
-79.1834 -23.3599 39.0089 
26.8098 -23.3599 56.5316 
40.4102 -23.3599 58.6128 
86.6738 -23.3599 110.549 
-23.0583 -23.3599 107.64 
-105.707 -23.3599 -49.9663 
-44.624 -23.3599 105.562 
-20.5391 -23.3599 118.726 
16.0419 -23.3599 117.999 
-113.032 -23.3599 -98.7248 
-0.971687 -23.3599 5.37756 
64.676 -23.3599 96.7659 
92.8987 -23.3599 106.704 
-118.178 -23.3599 79.9961 
-60.2349 -23.3599 45.707 
-55.7462 -23.3599 49.8584 
-61.5633 -23.3599 -42.8784 
-67.1218 -23.3599 82.3599 
-53.7865 -23.3599 69.6502 
-39.9397 -23.3599 17.7558 
-23.4827 -23.3599 91.8681 
-72.6823 -23.3599 -55.4315 
-81.8708 -23.3599 -27.6479 
-79.1995 -23.3599 104.92 
-85.8016 -23.3599 -17.874 
-93.1403 -23.3599 -58.2924 
-11.8424 -23.3599 -7.40229 
-65.9166 -23.3599 51.6941 
-38.2228 -23.3599 103.647 
-21.7735 -23.3599 111.684 
-99.8839 -23.3599 -79.9031 
-56.1691 -23.3599 -39.2942 
-32.2552 -23.3599 67.1939 
-41.7471 -23.3599 -0.117462 
-37.8322 -23.3599 90.691 
25.9294 -23.3599 41.586 
-45.3843 -23.3599 52.3924 
-108.032 -23.3599 -94.8653 
13.0104 -23.3599 86.1881 
-114.435 -23.3599 -12.3922 
-48.1059 -23.3599 90.8394 
10.8495 -23.3599 96.2451 
-53.605 -23.3599 -15.1444 
-54.9054 -23.3599 55.254 
-20.5891 -23.3599 28.1043 
-96.5407 -23.3599 55.7635 
-103.032 -23.3599 41.3607 
-70.7175 -23.3599 39.9902 
-78.4355 -23.3599 -49.6672 
-42.1878 -23.3599 -11.6048 
49.2334 -23.3599 52.7181 
-33.2979 -23.3599 106.762 
-112.011 -23.3599 -89.2741 
-111.413 -23.3599 -71.019 
-95.8357 -23.3599 79.8228 
-120.349 -23.3599 73.3503 
-27.3082 -23.3599 3.12007 
-49.1456 -23.3599 88.6275 
-16.3268 -23.3599 71.8636 
10.1728 -23.3599 39.1353 
53.4346 -23.3599 112.558 
-12.5754 -23.3599 101.369 
22.1222 -23.3599 105.302 
72.8512 -23.3599 81.9266 
72.8515 -23.3599 88.8614 
30.8795 -23.3599 44.7245 
-44.3326 -23.3599 65.4771 
-1.54745 -23.3599 31.7491 
-65.3514 -23.3599 -62.5016 
-98.9687 -23.3599 -92.8353 
16.4364 -23.3599 97.2277 
-66.8173 -23.3599 -9.60056 
-33.548 -23.3599 35.016 
-95.7047 -23.3599 -74.0768 
-67.3539 -23.3599 86.3778 
-42.5796 -23.3599 -7.85677 
-54.2095 -23.3599 107.875 
-87.6915 -23.3599 -23.9929 
41.4847 -23.3599 59.5691 
2.40127 -23.3599 112.534 
-92.7522 -23.3599 16.3195 
-109.764 -23.3599 -12.5117 
-78.8166 -23.3599 95.0698 
-44.8877 -23.3599 8.6748 
28.5005 -23.3599 65.0784 
-6.49139 -23.3599 119.549 
-88.7825 -23.3599 107.578 
-60.1375 -23.3599 40.2407 
-66.7452 -23.3599 -27.6774 
-43.7379 -23.3599 1.94382 
-89.0542 -23.3599 -55.9897 
66.4066 -23.3599 107.441 
-65.8869 -23.3599 18.772 
25.41 -23.3599 116.62 
-81.693 -23.3599 -7.55549 
-92.1662 -23.3599 -64.6603 
20.1342 -23.3599 114.328 
-55.1013 -23.3599 56.3139 
-50.581 -23.3599 69.0725 
-43.5844 -23.3599 100.059 
46.9951 -23.3599 99.8405 
49.1655 -23.3599 81.3141 
-93.9758 -23.3599 -50.381 
-82.1652 -23.3599 24.1281 
-18.1153 -23.3599 51.7701 
-114.196 -23.3599 -111.803 
54.2106 -23.3599 70.8101 
-46.1333 -23.3599 33.0634 
6.08994 -23.3599 29.1492 
-62.7355 -23.3599 -10.44 
-87.3211 -23.3599 90.4102 
-34.8651 -23.3599 20.0651 
-86.528 -23.3599 -2.32349 
-95.1107 -23.3599 -76.2018 
33.2643 -23.3599 44.5913 
-106.077 -23.3599 -29.2533 
-43.5286 -23.3599 42.8559 
-68.6909 -23.3599 86.2476 
-53.5083 -23.3599 62.4571 
20.6059 -23.3599 68.5614 
-86.7923 -23.3599 33.888 
-112.047 -23.3599 -46.4432 
25.864 -23.3599 91.3379 
-66.2822 -23.3599 22.2608 
-70.9321 -23.3599 60.1384 
-28.1336 -23.3599 52.2482 
52.6789 -23.3599 54.469 
-120.05 -23.3599 -94.5532 
-85.856 -23.3599 77.9854 
-10.4218 -23.3599 2.19433 
75.0291 -23.3599 113.502 
-102.698 -23.3599 29.1934 
-90.969 -23.3599 -46.1021 
13.0883 -23.3599 16.3341 
57.7437 -23.3599 72.3042 
-48.2592 -23.3599 53.331 
-108.99 -23.3599 -35.5861 
-11.1771 -23.3599 44.534 
-79.0957 -23.3599 114.108 
-39.1978 -23.3599 25.5867 
-60.2624 -23.3599 -20.5357 
-59.6892 -23.3599 113.864 
34.3705 -23.3599 75.634 
-74.2483 -23.3599 81.5346 
-114.899 -23.3599 -40.1381 
-120.187 -23.3599 40.5366 
23.2663 -23.3599 51.8188 
-52.3377 -23.3599 25.4391 
-85.8202 -23.3599 60.7702 
97.6652 -23.3599 109.664 
-20.9747 -23.3599 105.892 
1.51973 -23.3599 98.8364 
21.3991 -23.3599 107.889 
64.7534 -23.3599 66.7831 
-65.6452 -23.3599 83.2492 
-1.73281 -23.3599 80.908 
97.4925 -23.3599 98.5481 
-108.382 -23.3599 98.143 
-80.0097 -23.3599 74.3189 
-88.0543 -23.3599 23.1791 
-94.1405 -23.3599 -81.8534 
6.11034 -23.3599 82.2782 
-83.1597 -23.3599 53.1697 
-112.406 -23.3599 107.82 
-103.074 -23.3599 71.5883 
-111.644 -23.3599 -31.831 
-120.958 -23.3599 96.9167 
0.446112 -23.3599 91.9756 
-82.3617 -23.3599 -23.8831 
-59.2666 -23.3599 62.2752 
-93.6545 -23.3599 53.1034 
-68.8635 -23.3599 29.7526 
-112.413 -23.3599 38.6576 
-34.001 -23.3599 15.4242 
39.7199 -23.3599 95.1807 
-28.8263 -23.3599 -13.8629 
-114.232 -23.3599 -20.3761 
12.5642 -23.3599 119.009 
-77.8387 -23.3599 -15.0156 
-113.803 -23.3599 58.8101 
-86.0344 -23.3599 1.38774 
1.24762 -23.3599 40.8702 
48.4102 -23.3599 74.2692 
81.8913 -23.3599 100.443 
40.3764 -23.3599 62.3004 
-84.9982 -23.3599 48.9752 
-97.7025 -23.3599 78.8249 
-34.6934 -23.3599 90.4179 
13.5157 -23.3599 38.6126 
-67.4349 -23.3599 -15.9149 
-78.6484 -23.3599 17.619 
-33.629 -23.3599 48.1204 
-62.4294 -23.3599 51.8979 
-85.6778 -23.3599 33.6679 
8.8448 -23.3599 106.424 
-27.7409 -23.3599 30.7429 
9.49421 -23.3599 49.1839 
9.4494 -23.3599 102.931 
13.1035 -23.3599 73.5938 
-47.8923 -23.3599 104.286 
-95.5884 -23.3599 93.7795 
-73.9806 -23.3599 100.96 
81.6674 -23.3599 81.8141 
-108.478 -23.3599 5.20627 
80.0743 -23.3599 115.379 
-35.9339 -23.3599 37.4639 
43.5888 -23.3599 94.8123 
71.0469 -23.3599 76.2052 
-8.82018 -23.3599 -103.7 
116.378 -23.3599 48.0438 
12.9976 -23.3599 -69.8505 
86.1801 -23.3599 55.9599 
-90.7863 -23.3599 -116.564 
98.4674 -23.3599 -7.42825 
93.2735 -23.3599 91.8013 
112.467 -23.3599 76.0323 
29.2459 -23.3599 -83.212 
-48.6815 -23.3599 -110.419 
-56.3808 -23.3599 -59.6754 
-63.1961 -23.3599 -85.9332 
1.75069 -23.3599 -94.902 
83.525 -23.3599 -107.241 
-114.371 -23.3599 -114.903 
33.4186 -23.3599 17.4746 
86.3719 -23.3599 -44.4135 
45.6502 -23.3599 8.70465 
56.7242 -23.3599 -54.0091 
98.1856 -23.3599 56.8697 
16.3073 -23.3599 -27.6119 
-43.5873 -23.3599 -69.4209 
27.6586 -23.3599 -75.858 
60.3319 -23.3599 -8.44119 
-9.0314 -23.3599 -9.69069 
112.542 -23.3599 -33.2079 
102.276 -23.3599 78.1641 
56.3578 -23.3599 -66.8251 
118.984 -23.3599 -62.8534 
-25.9994 -23.3599 -110.885 
62.312 -23.3599 -35.9587 
59.3275 -23.3599 -62.3269 
31.1313 -23.3599 19.0201 
38.9677 -23.3599 -79.3268 
-9.99036 -23.3599 -16.7743 
-11.8119 -23.3599 -12.8718 
87.4706 -23.3599 5.69486 
27.1256 -23.3599 -26.9213 
-102.194 -23.3599 -112.119 
118.547 -23.3599 97.1792 
46.5698 -23.3599 -45.2487 
22.7191 -23.3599 -29.0307 
90.536 -23.3599 -48.4542 
35.254 -23.3599 -98.7834 
46.2861 -23.3599 19.5361 
-70.7383 -23.3599 -105.357 
92.4946 -23.3599 75.1731 
115.249 -23.3599 98.789 
95.3918 -23.3599 -40.0433 
6.06612 -23.3599 -60.0161 
43.7585 -23.3599 31.9681 
74.3168 -23.3599 -13.8736 
48.2955 -23.3599 -115.222 
95.6644 -23.3599 92.1403 
-33.4856 -23.3599 -72.3666 
26.3682 -23.3599 -42.2618 
-1.24792 -23.3599 -99.1448 
6.02919 -23.3599 -92.4052 
-37.9501 -23.3599 -105.838 
54.6303 -23.3599 -45.221 
113.245 -23.3599 -58.5711 
-9.37637 -23.3599 -70.0237 
-17.5805 -23.3599 -27.9936 
112.855 -23.3599 -47.4141 
118.212 -23.3599 14.5331 
99.4341 -23.3599 96.1146 
-59.0839 -23.3599 -71.877 
33.6006 -23.3599 -21.5176 
90.8871 -23.3599 -17.2624 
67.8155 -23.3599 -63.4691 
-71.7142 -23.3599 -85.2781 
79.787 -23.3599 41.3555 
-52.083 -23.3599 -96.9957 
110.552 -23.3599 -34.8977 
-37.8931 -23.3599 -51.3641 
32.5631 -23.3599 -9.94295 
-64.4828 -23.3599 -97.7358 
91.7754 -23.3599 -43.838 
83.0576 -23.3599 -47.4068 
99.8358 -23.3599 -74.5562 
19.2331 -23.3599 -3.70692 
96.7144 -23.3599 -47.2418 
49.4346 -23.3599 -73.257 
71.6858 -23.3599 56.4497 
-63.9998 -23.3599 -103.96 
31.7909 -23.3599 -41.9832 
120.805 -23.3599 105.521 
42.1494 -23.3599 -30.2458 
89.6194 -23.3599 -113.389 
81.4696 -23.3599 19.7418 
114.118 -23.3599 63.2595 
55.3851 -23.3599 -108.677 
71.7271 -23.3599 -69.4219 
114.083 -23.3599 -83.2393 
40.9433 -23.3599 -1.16256 
120.482 -23.3599 84.0636 
71.4339 -23.3599 -52.5938 
75.5019 -23.3599 52.752 
119.396 -23.3599 13.6931 
85.5163 -23.3599 -82.9394 
-54.3446 -23.3599 -92.8322 
-54.4496 -23.3599 -111.088 
85.9351 -23.3599 -119.316 
95.6408 -23.3599 -24.363 
-2.1775 -23.3599 -104.325 
-20.6998 -23.3599 -98.1307 
-38.161 -23.3599 -72.989 
93.7024 -23.3599 16.6931 
3.44271 -23.3599 -101.916 
102.33 -23.3599 -76.7368 
36.7637 -23.3599 -110.999 
2.31626 -23.3599 -17.1513 
5.57925 -23.3599 -46.8249 
13.9407 -23.3599 -66.5104 
52.3723 -23.3599 -42.784 
97.9427 -23.3599 87.0472 
76.632 -23.3599 -23.9321 
108.827 -23.3599 15.673 
68.6436 -23.3599 31.6704 
0.592834 -23.3599 -71.1525 
101.991 -23.3599 -78.9759 
120.321 -23.3599 13.6649 
-40.3951 -23.3599 -80.0231 
114.035 -23.3599 36.3297 
99.4891 -23.3599 -105.509 
92.887 -23.3599 49.9706 
-25.379 -23.3599 -105.727 
93.9203 -23.3599 -20.891 
-15.9506 -23.3599 -85.6856 
81.2139 -23.3599 -10.5401 
99.2487 -23.3599 -117.965 
27.6747 -23.3599 -50.9133 
67.8893 -23.3599 -1.01336 
43.4952 -23.3599 15.592 
37.9388 -23.3599 11.7744 
114.844 -23.3599 -57.4103 
85.2705 -23.3599 -118.189 
73.9589 -23.3599 67.9688 
57.9653 -23.3599 -92.3449 
19.8411 -23.3599 -108.913 
13.475 -23.3599 -106.318 
78.2997 -23.3599 5.97458 
90.7651 -23.3599 2.44013 
103.312 -23.3599 47.7369 
91.3797 -23.3599 4.43626 
94.8272 -23.3599 -22.1993 
-25.4394 -23.3599 -49.2402 
100.115 -23.3599 12.069 
-17.3365 -23.3599 -19.7231 
63.2644 -23.3599 33.5226 
37.982 -23.3599 32.8833 
81.3348 -23.3599 -106.537 
-32.8535 -23.3599 -90.598 
106.637 -23.3599 0.939957 
-39.4223 -23.3599 -114.077 
-10.2044 -23.3599 -36.9451 
13.6141 -23.3599 11.9595 
115.802 -23.3599 -32.4081 
42.0488 -23.3599 -67.2014 
25.2787 -23.3599 -19.3798 
119.632 -23.3599 12.9518 
76.3065 -23.3599 -105.412 
56.0057 -23.3599 -13.8987 
70.1462 -23.3599 -9.85297 
89.6269 -23.3599 46.589 
-19.882 -23.3599 -31.2338 
75.9624 -23.3599 -83.838 
48.9461 -23.3599 0.529114 
-70.891 -23.3599 -115.313 
82.0282 -23.3599 -81.9173 
105.653 -23.3599 63.4654 
-90.073 -23.3599 -119.198 
11.2348 -23.3599 -48.7428 
35.7242 -23.3599 -3.64602 
90.0848 -23.3599 2.59752 
40.0493 -23.3599 -85.1453 
119.771 -23.3599 79.3728 
18.8678 -23.3599 -32.1193 
55.7037 -23.3599 40.3187 
-26.7176 -23.3599 -67.8112 
84.6692 -23.3599 77.1149 
104.21 -23.3599 33.6896 
10.0581 -23.3599 -37.5955 
108.593 -23.3599 -95.1798 
107.796 -23.3599 14.6578 
-54.6622 -23.3599 -70.0877 
107.392 -23.3599 0.185883 
76.3871 -23.3599 -45.0594 
-79.6434 -23.3599 -90.5251 
11.8273 -23.3599 -119.196 
100.934 -23.3599 12.1644 
118.345 -23.3599 14.8155 
69.1981 -23.3599 -26.7252 
83.8869 -23.3599 44.5277 
105.421 -23.3599 -12.7681 
-21.2114 -23.3599 -33.5672 
105.896 -23.3599 19.2881 
102.72 -23.3599 64.5332 
24.4595 -23.3599 -5.26224 
81.5496 -23.3599 -36.2846 
41.3848 -23.3599 -0.0118523 
-27.8727 -23.3599 -117.85 
56.1525 -23.3599 -35.4445 
24.2166 -23.3599 5.51257 
58.7489 -23.3599 -72.2898 
-95.1997 -23.3599 -95.4749 
62.7793 -23.3599 -68.9346 
117.622 -23.3599 -82.5276 
45.5148 -23.3599 34.5569 
65.743 -23.3599 -6.77236 
20.6007 -23.3599 -107.677 
-9.3916 -23.3599 -64.9562 
2.12918 -23.3599 -91.354 
-42.7439 -23.3599 -73.7561 
6.93639 -23.3599 -65.2539 
85.4075 -23.3599 66.8057 
103.442 -23.3599 -74.4742 
13.7027 -23.3599 -8.39417 
-6.72255 -23.3599 -19.8706 
86.973 -23.3599 76.068 
120.189 -23.3599 -27.4777 
-7.42406 -23.3599 -52.8885 
109.192 -23.3599 -46.7994 
62.834 -23.3599 48.758 
42.9873 -23.3599 -42.8236 
-22.108 -23.3599 -42.7129 
100.843 -23.3599 74.7609 
-46.5318 -23.3599 -63.7992 
-25.0032 -23.3599 -29.7825 
1.47419 -23.3599 -87.0411 
111.498 -23.3599 81.72 
107.751 -23.3599 51.117 
115.852 -23.3599 -33.4983 
-1.43975 -23.3599 -88.4867 
41.5114 -23.3599 -78.5509 
87.2122 -23.3599 -28.2893 
38.9473 -23.3599 -26.8934 
-35.3556 -23.3599 -112.967 
20.4787 -23.3599 -103.933 
74.2963 -23.3599 -2.40753 
102.8 -23.3599 0.127617 
117.341 -23.3599 41.2946 
-51.3697 -23.3599 -112.786 
48.4176 -23.3599 -12.1954 
107.699 -23.3599 70.1598 
95.9979 -23.3599 -37.0034 
91.3895 -23.3599 28.4587 
-63.4402 -23.3599 -119.934 
19.4195 -23.3599 -75.5645 
-67.4907 -23.3599 -71.7176 
30.9826 -23.3599 -12.0543 
89.0257 -23.3599 51.9527 
67.5755 -23.3599 13.6841 
-71.6396 -23.3599 -98.4532 
-30.3391 -23.3599 -107.076 
97.9406 -23.3599 63.7553 
114.684 -23.3599 24.1934 
-25.2352 -23.3599 -118.449 
-29.4866 -23.3599 -113.381 
74.9898 -23.3599 -51.6448 
71.1717 -23.3599 -92.7738 
72.5102 -23.3599 69.0505 
63.5719 -23.3599 20.7944 
45.4624 -23.3599 -117.096 
74.3503 -23.3599 -93.1194 
91.449 -23.3599 -71.8271 
-7.03876 -23.3599 -26.7603 
26.3825 -23.3599 -71.1451 
-56.1537 -23.3599 -93.1682 
-40.4369 -23.3599 -62.3305 
68.8209 -23.3599 2.85497 
96.9047 -23.3599 89.7439 
-64.6757 -23.3599 -103.379 
117.053 -23.3599 -75.9527 
74.8024 -23.3599 54.8053 
-28.0306 -23.3599 -107.56 
-50.3165 -23.3599 -90.7064 
-68.2814 -23.3599 -101.902 
109.768 -23.3599 -9.58435 
-27.3179 -23.3599 -71.8134 
117.682 -23.3599 -107.864 
52.1574 -23.3599 -22.3712 
-27.7396 -23.3599 -54.6561 
19.4549 -23.3599 -110.474 
-11.8683 -23.3599 -35.1928 
85.2401 -23.3599 -84.0549 
38.0685 -23.3599 -105.214 
103.491 -23.3599 91.4432 
37.0395 -23.3599 -102.448 
62.759 -23.3599 -30.4862 
-43.1426 -23.3599 -57.9092 
-38.0273 -23.3599 -102.516 
66.6889 -23.3599 -87.9209 
4.01528 -23.3599 -45.0609 
-26.0196 -23.3599 -65.1277 
74.1465 -23.3599 -71.2776 
1.47108 -23.3599 -27.3691 
59.8069 -23.3599 43.42 
16.7936 -23.3599 -41.8988 
98.2882 -23.3599 -97.5616 
36.5284 -23.3599 18.1423 
29.4626 -23.3599 17.0392 
-37.6318 -23.3599 -47.5964 
61.925 -23.3599 55.7263 
6.21626 -23.3599 -20.2094 
97.4412 -23.3599 37.801 
46.2389 -23.3599 -21.9273 
89.0369 -23.3599 71.1355 
-31.8789 -23.3599 -81.7139 
-14.4754 -23.3599 -77.6029 
63.28 -23.3599 -37.2213 
-30.3051 -23.3599 -95.777 
20.9241 -23.3599 8.76989 
-109.753 -23.3599 -109.573 
36.7527 -23.3599 -58.271 
1.80634 -23.3599 -58.3271 
83.8814 -23.3599 9.33765 
-9.66873 -23.3599 -81.2063 
68.2833 -23.3599 60.6791 
40.843 -23.3599 -55.9739 
101.726 -23.3599 -104.331 
-48.1489 -23.3599 -60.7135 
10.2706 -23.3599 -44.9286 
77.1881 -23.3599 49.4927 
-64.9738 -23.3599 -105.512 
107.301 -23.3599 -0.528252 
8.50489 -23.3599 -110.039 
40.4934 -23.3599 -58.4683 
20.7632 -23.3599 -80.4406 
56.8475 -23.3599 -37.7882 
-85.7031 -23.3599 -96.9347 
90.2061 -23.3599 -117.48 
30.3881 -23.3599 0.283163 
7.83201 -23.3599 -79.8022 
51.998 -23.3599 -47.6065 
113.31 -23.3599 83.561 
31.8344 -23.3599 29.2 
50.44 -23.3599 6.94027 
47.5479 -23.3599 12.2757 
112.353 -23.3599 -46.2355 
5.30331 -23.3599 -46.1162 
117.38 -23.3599 94.2791 
20.8529 -23.3599 -5.20269 
-29.8877 -23.3599 -57.1323 
64.4763 -23.3599 6.46428 
75.4811 -23.3599 -107.858 
99.834 -23.3599 31.34 
0.056282 -23.3599 -105.4 
110.244 -23.3599 106.663 
112.622 -23.3599 -90.4933 
87.1094 -23.3599 -49.3266 
27.7515 -23.3599 -21.9203 
11.6509 -23.3599 -74.5133 
22.3165 -23.3599 -51.9605 
-9.50348 -23.3599 -42.6657 
5.19445 -23.3599 -8.57975 
93.3294 -23.3599 4.49438 
101.009 -23.3599 -80.9526 
-110.345 -23.3599 -115.202 
95.6211 -23.3599 -81.46 
-53.2301 -23.3599 -55.2015 
121.6 -23.3599 59.5533 
46.2826 -23.3599 -78.8226 
-16.9353 -23.3599 -44.8326 
-7.5285 -23.3599 -9.4669 
108.633 -23.3599 -112.324 
111.955 -23.3599 83.4792 
-21.1638 -23.3599 -24.6345 
-14.6371 -23.3599 -40.0214 
82.4208 -23.3599 -59.2615 
106.783 -23.3599 -68.023 
120.899 -23.3599 -14.2899 
99.7366 -23.3599 -77.0277 
2.13264 -23.3599 -4.40313 
41.3565 -23.3599 5.14144 
-16.4124 -23.3599 -19.939 
-23.8264 -23.3599 -65.7776 
82.5452 -23.3599 -65.8123 
115.554 -23.3599 -29.0498 
-12.3461 -23.3599 -69.1926 
9.71406 -23.3599 -11.5 
52.6709 -23.3599 -63.6668 
74.8984 -23.3599 -20.161 
108.809 -23.3599 58.7401 
-2.29887 -23.3599 -115.134 
-56.1536 -23.3599 -65.5286 
33.8404 -23.3599 11.8101 
38.3928 -23.3599 -1.46186 
90.3269 -23.3599 -70.8161 
119.669 -23.3599 76.347 
-63.4612 -23.3599 -117.931 
17.191 -23.3599 -96.3507 
27.1431 -23.3599 19.4915 
44.7666 -23.3599 -63.1863 
71.8932 -23.3599 -5.91776 
95.2075 -23.3599 -72.546 
-92.2081 -23.3599 -114.403 
55.3137 -23.3599 -71.5729 
-5.00596 -23.3599 -69.1606 
57.59 -23.3599 -95.9164 
-35.6338 -23.3599 -73.7422 
110.225 -23.3599 54.9311 
106.02 -23.3599 102.109 
34.5478 -23.3599 32.779 
7.72753 -23.3599 -100.509 
91.8919 -23.3599 2.83189 
75.2053 -23.3599 -117.35 
58.2718 -23.3599 -52.8185 
-14.3673 -23.3599 -77.6931 
46.7806 -23.3599 -96.137 
-29.7053 -23.3599 -70.8227 
-27.7309 -23.3599 -38.94 
67.5791 -23.3599 -8.28387 
81.3031 -23.3599 -96.7121 
102.054 -23.3599 -28.2433 
69.2862 -23.3599 -94.2599 
117.384 -23.3599 -15.661 
89.2376 -23.3599 -59.224 
18.9993 -23.3599 -15.0589 
60.2115 -23.3599 -110.367 
117.798 -23.3599 109.78 
65.8896 -23.3599 -100.158 
71.5121 -23.3599 -87.5979 
-29.0786 -23.3599 -110.146 
-55.7092 -23.3599 -77.6395 
31.9537 -23.3599 -25.4312 
-93.4287 -23.3599 -94.3624 
27.3782 -23.3599 -57.7639 
112.864 -23.3599 -75.435 
-36.9039 -23.3599 -76.0716 
60.699 -23.3599 36.8373 
-56.6254 -23.3599 -117.993 
33.4094 -23.3599 8.96064 
81.0944 -23.3599 3.84615 
86.9115 -23.3599 49.6067 
65.994 -23.3599 7.10302 
38.607 -23.3599 -52.3421 
104.993 -23.3599 -45.5122 
9.18104 -23.3599 -78.0852 
5.40642 -23.3599 4.28138 
-8.68288 -23.3599 -80.6694 
109.679 -23.3599 26.018 
110.11 -23.3599 -53.7317 
80.2238 -23.3599 -11.129 
24.1486 -23.3599 9.25855 
19.5647 -23.3599 -106.26 
7.2683 -23.3599 1.85954 
-6.76349 -23.3599 -24.751 
69.9742 -23.3599 5.6008 
97.9977 -23.3599 49.4441 
-12.1609 -23.3599 -43.7993 
50.0305 -23.3599 -117.758 
84.5634 -23.3599 -55.8614 
82.9854 -23.3599 12.5592 
111.343 -23.3599 78.6369 
-25.0573 -23.3599 -31.4305 
29.6019 -23.3599 -44.3524 
32.3199 -23.3599 4.60183 
65.1629 -23.3599 -97.8496 
84.7845 -23.3599 -16.2252 
66.8251 -23.3599 60.3911 
60.7242 -23.3599 50.9879 
27.4586 -23.3599 12.6898 
-1.9616 -23.3599 -8.33455 
-10.7332 -23.3599 -82.2106 
38.2417 -23.3599 17.583 
76.0336 -23.3599 46.7344 
37.8203 -23.3599 -76.2895 
111.177 -23.3599 0.295044 
102.395 -23.3599 20.7799 
84.5538 -23.3599 26.3069 
72.628 -23.3599 -117.368 
93.3355 -23.3599 -42.8068 
55.9102 -23.3599 -74.3703 
-2.41687 -23.3599 -105.268 
-6.57167 -23.3599 -17.9391 
95.815 -23.3599 79.1119 
9.73087 -23.3599 -87.1793 
39.9646 -23.3599 21.5257 
-106.386 -23.3599 -113.901 
47.251 -23.3599 -48.5782 
-59.6521 -23.3599 -74.5119 
-74.2267 -23.3599 -93.3416 
-65.8076 -23.3599 -88.7424 
31.6225 -23.3599 -19.3838 
45.339 -23.3599 -112.994 
104.048 -23.3599 -47.601 
-40.0974 -23.3599 -81.5351 
35.6082 -23.3599 -109.213 
-7.2086 -23.3599 -18.0477 
15.6505 -23.3599 -39.914 
-20.1665 -23.3599 -102.358 
75.5265 -23.3599 30.0916 
32.4057 -23.3599 -95.3767 
-33.794 -23.3599 -53.9776 
51.5449 -23.3599 -13.2749 
106.428 -23.3599 -70.6247 
79.3012 -23.3599 76.9555 
-16.2221 -23.3599 -42.6322 
40.8492 -23.3599 15.2324 
-2.08832 -23.3599 -44.7216 
-5.13269 -23.3599 -55.9897 
106.375 -23.3599 -21.3048 
39.3564 -23.3599 -117.222 
43.2471 -23.3599 -87.664 
59.5441 -23.3599 -4.58229 
104.637 -23.3599 -113.41 
103.065 -23.3599 -73.1746 
68.5422 -23.3599 -16.606 
33.4897 -23.3599 -62.2072 
109.762 -23.3599 56.9036 
-42.8846 -23.3599 -98.1017 
70.768 -23.3599 49.4665 
98.1043 -23.3599 -32.0563 
106.176 -23.3599 -3.13363 
55.5984 -23.3599 21.749 
90.0724 -23.3599 64.3445 
94.2072 -23.3599 88.3224 
-18.4678 -23.3599 -20.8502 
95.2215 -23.3599 -7.77346 
76.3803 -23.3599 4.23705 
77.8679 -23.3599 -66.4095 
-14.1714 -23.3599 -66.4554 
-88.2278 -23.3599 -110.575 
65.5508 -23.3599 -103.288 
98.3149 -23.3599 7.23139 
-47.8208 -23.3599 -59.8144 
67.3458 -23.3599 -53.6404 
15.1723 -23.3599 -65.5552 
62.7897 -23.3599 -115.116 
83.2921 -23.3599 -21.8522 
70.2602 -23.3599 -98.8632 
-39.7819 -23.3599 -95.1765 
88.5023 -23.3599 32.7865 
28.3802 -23.3599 -26.0904 
68.4096 -23.3599 -1.85935 
-56.2046 -23.3599 -96.6021 
-62.0454 -23.3599 -109.243 
-23.8897 -23.3599 -89.0141 
-45.3414 -23.3599 -70.0913 
120.604 -23.3599 -31.0445 
-25.526 -23.3599 -32.9931 
-19.5866 -23.3599 -50.1083 
70.3893 -23.3599 -99.2381 
35.7829 -23.3599 -112.329 
-16.1898 -23.3599 -18.2826 
112.829 -23.3599 -37.8968 
72.376 -23.3599 -4.065 
28.4166 -23.3599 6.09453 
114.252 -23.3599 -62.0924 
26.2248 -23.3599 -74.8035 
98.5657 -23.3599 -102.976 
120.954 -23.3599 -14.3919 
105.971 -23.3599 -27.0118 
-121.861 -25.5636 -71.4325 
-121.861 -25.3817 -52.8177 
-121.861 -25.9764 -108.85 
-121.861 -23.728 60.6708 
-121.861 -25.7315 -68.6566 
-121.861 -25.5178 -27.8695 
-121.861 -26.852 -98.4721 
-121.861 -26.0865 -73.7372 
-121.861 -25.3396 -73.1652 
-121.861 -25.1506 29.2459 
-121.861 -26.3787 -21.622 
-121.861 -26.4233 40.452 
-121.861 -27.0522 66.7194 
-121.861 -26.335 73.7861 
-121.861 -24.1523 112.197 
-121.861 -25.8406 36.6758 
-121.861 -25.133 99.3199 
-121.861 -24.9074 69.6891 
10.5664 -23.7705 120.693 
7.18988 -23.8524 120.693 
-108.331 -26.1036 120.693 
52.824 -23.9299 120.693 
-85.372 -25.5254 120.693 
-90.0301 -25.6864 120.693 
-86.8624 -26.2526 120.693 
-90.8761 -26.186 120.693 
-56.0237 -24.5843 120.693 
40.612 -26.4365 120.693 
7.13863 -26.5126 120.693 
-74.5599 -26.9371 120.693 
29.4021 -27.1946 120.693 
8.45954 -26.8707 120.693 
54.2073 -25.1095 120.693 
9.95428 -26.7426 120.693 
119.169 -27.2312 120.693 
77.6413 -24.8012 120.693 
10.729 -24.6135 -118.072 
-94.4668 -24.6135 -117.955 
-95.6799 -24.6135 -118.371 
-89.2354 -24.6135 -118.196 
-30.2322 -24.6135 -118.768 
-51.5531 -24.6135 -118.827 
31.8331 -24.6135 -117.199 
14.8912 -24.6135 -119.77 
-75.6411 -24.6135 -119.872 
64.3672 -24.6135 -117.716 
26.7653 -24.6135 -119.352 
77.8282 -24.6135 -117.824 
75.0924 -24.6135 -119.433 
18.3774 -24.6135 -119.888 
32.3584 54.226 -101.96 
17.5264 54.226 -102.247 
-62.9219 54.226 -102.219 
-53.9132 54.226 -101.514 
-47.215 54.226 -103.319 
16.155 54.226 -103.676 
16.8129 54.226 -103.038 
-40.4831 54.226 -104.472 
71.2826 54.226 -103.325 
-49.6252 54.226 -103.933 
-77.9826 64.9326 -85.209 
-66.1535 64.9326 -84.7563 
-55.5283 64.9326 -82.504 
-36.9788 64.9326 -83.7116 
9.6328 64.9326 -83.0272 
79.6193 64.9326 -84.906 
67.6236 64.9326 -84.2931 
68.2537 64.9326 -84.2936 
82.9629 64.9326 -84.0225 
21.6067 64.9326 -83.4481 
25.9109 -23.0619 -120.071 
34.4642 -21.9872 -120.071 
-7.57439 -20.7247 -120.071 
-62.717 -22.6078 -120.071 
-118.099 -19.6026 -120.071 
-102.734 -16.959 -120.071 
-27.0067 -21.8582 -120.071 
-118.663 -23.1873 -120.071 
54.7347 -23.5535 -120.071 
-4.96185 -21.8984 -120.071 
47.848 -22.7099 -120.071 
-26.7856 -24.4075 -120.071 
13.8059 -20.5445 -120.071 
11.2594 -22.1434 -120.071 
-7.90648 -24.5583 -120.071 
-58.8294 -21.9742 -120.071 
-106.173 -18.8466 -120.071 
-93.5877 -22.3454 -120.071 
-63.7783 -20.6998 -120.071 
-12.8454 -23.7015 -120.071 
-71.7299 -22.0501 -120.071 
111.024 -16.1087 -120.071 
-12.9485 -15.7071 -120.071 
61.8729 -17.1725 -120.071 
105.945 -16.7447 -120.071 
96.7995 -19.465 -120.071 
77.4001 -15.6155 -120.071 
-76.2831 -16.0773 -120.071 
52.5731 -20.1595 -120.071 
54.3833 -16.7071 -120.071 
-6.72383 -15.3831 -120.071 
4.90983 -19.5717 -120.071 
111.501 -17.1596 -120.071 
81.9168 -15.8641 -120.071 
83.4074 -17.1788 -120.071 
10.3859 -18.9976 -120.071 
82.0696 -16.0124 -120.071 
64.0833 -19.116 -120.071 
117.734 -16.5565 -120.071 
85.9649 -21.6717 -120.071 
96.5162 -18.2529 -120.071 
108.976 -19.7987 -120.071 
75.4154 -21.2817 -120.071 
25.9049 -19.6262 -116.981 
-30.9134 -23.7526 -116.981 
-30.1494 -21.694 -116.981 
0.375763 -22.6686 -116.981 
85.9774 -19.3751 -116.981 
0.594116 -23.762 -116.981 
8.85434 -21.0997 -116.981 
65.1305 -17.3755 -116.981 
117.017 -20.9372 -116.981 
77.8621 -18.5331 -116.981 
-86.5351 -23.4172 -116.981 
91.5241 -18.0989 -116.981 
-24.9498 -22.7217 -116.981 
-69.7502 -23.5309 -116.981 
13.2597 -23.7452 -116.981 
22.4656 -24.3715 -116.981 
-73.0844 -24.4936 -116.981 
-16.4524 -24.0139 -116.981 
100.632 -16.4707 -116.981 
60.7881 -22.9887 -116.981 
56.7029 -24.108 -116.981 
-74.884 -16.4189 -116.981 
-115.128 -16.0288 -116.981 
-73.62 -16.2774 -116.981 
-70.9575 -22.1431 -116.981 
-17.853 -16.5054 -116.981 
-96.5478 -16.6048 -116.981 
51.0985 -15.5426 -116.981 
9.17619 -16.9791 -116.981 
63.3263 -16.5993 -116.981 
-34.6871 -16.3847 -116.981 
-18.6036 -20.0159 -116.981 
-49.4102 -21.7404 -116.981 
-103.701 -19.8823 -116.981 
-53.375 -21.1877 -116.981 
-93.078 -17.5013 -116.981 
71.4139 -16.5108 -116.981 
-98.5559 -23.5439 -116.981 
-42.3592 -21.2722 -116.981 
25.6061 -17.917 -116.981 
-39.2435 -15.4916 -116.981 
-116.89 -17.6607 -116.981 
101.426 -15.2073 -119.478 
-53.9794 -15.2073 -119.948 
19.36 -15.2073 -118.378 
70.9284 -15.2073 -118.718 
-1.5777 -15.2073 -119.84 
-8.62225 -15.2073 -119.995 
115.986 -15.2073 -119.221 
62.6131 -15.2073 -117.095 
-67.306 -15.2073 -118.283 
-29.27 -15.2073 -118.409 
-100.691 -15.2073 -118.857 
-67.9875 -15.2073 -118.442 
-96.2232 -15.2073 -118.88 
-10.7649 -15.2073 -118.438 
-59.0626 54.5947 -104.497 
-76.5715 55.9777 -104.497 
-37.0597 54.8522 -104.497 
-47.6285 56.466 -104.497 
-70.6026 56.866 -104.497 
-83.6286 55.6041 -104.497 
58.8107 55.5128 -104.497 
53.6527 57.4646 -104.497 
23.7841 56.6527 -104.497 
-1.83265 56.3668 -104.497 
83.3547 55.036 -104.497 
-1.19717 54.3489 -101.408 
55.2496 55.7493 -101.408 
-38.6537 54.8121 -101.408 
61.7295 57.3282 -101.408 
67.476 54.3954 -101.408 
46.2225 56.6627 -101.408 
26.812 56.8534 -101.408 
-68.2226 57.5429 -101.408 
-44.9766 57.461 -101.408 
-75.3708 54.6668 -101.408 
-20.5562 56.7442 -101.408 
-21.6228 57.4649 -101.408 
73.5296 57.7923 -103.496 
35.2675 57.7923 -103.428 
-35.2863 57.7923 -104.446 
33.2635 57.7923 -103.935 
-42.5249 57.7923 -103.841 
-33.8768 57.7923 -101.901 
33.776 57.7923 -101.869 
-64.1692 57.7923 -103.931 
-13.4673 57.7923 -102.612 
-30.1169 57.7923 -103.435 
-52.3351 65.5702 -85.4202 
-55.4494 65.5379 -85.4202 
-84.1349 65.4006 -85.4202 
3.99713 64.9712 -85.4202 
2.9582 65.9925 -85.4202 
32.0351 65.5829 -85.4202 
72.858 67.2253 -85.4202 
4.04794 67.9887 -85.4202 
53.4655 67.6031 -85.4202 
17.8109 67.8702 -85.4202 
-29.7342 67.5648 -85.4202 
10.7437 68.4504 -85.4202 
30.7814 67.2597 -82.3307 
66.8568 67.1311 -82.3307 
30.1818 66.9925 -82.3307 
14.4394 65.574 -82.3307 
-31.6393 65.0751 -82.3307 
-38.109 66.7957 -82.3307 
-48.166 67.0455 -82.3307 
-80.2713 68.3765 -82.3307 
34.9959 68.2588 -82.3307 
38.4322 68.2889 -82.3307 
2.15375 68.4989 -84.5641 
55.356 68.4989 -85.3638 
79.0513 68.4989 -83.4695 
-0.253407 68.4989 -84.5448 
40.6416 68.4989 -83.8593 
16.0854 68.4989 -83.454 
-48.717 68.4989 -83.7327 
38.6519 68.4989 -82.8654 
-79.0173 68.4989 -83.0027 
46.7799 68.4989 -82.6577 
121.044 -18.2393 -58.4659 
121.044 -20.1489 -49.6597 
121.044 -18.664 -112.94 
121.044 -22.0758 -91.3753 
121.044 -24.3431 5.37124 
121.044 -18.7707 -90.1574 
121.044 -22.3405 -12.5818 
121.044 -19.6557 -13.1017 
121.044 -22.3563 32.212 
121.044 -19.7762 -8.82397 
121.044 -22.275 32.9801 
121.044 -22.0918 44.5316 
121.044 -23.0628 34.1047 
121.044 -22.5324 54.2096 
121.044 -20.7965 -106.353 
121.044 -21.9597 -11.3964 
121.044 -23.4276 -15.2507 
121.044 -24.2213 -100.475 
121.044 -19.3166 -64.5606 
121.044 -21.4088 -102.793 
121.044 -18.8167 -87.4851 
121.044 -17.6656 101.36 
121.044 -17.6971 117.161 
121.044 -19.023 73.3625 
121.044 -17.9094 -50.6985 
121.044 -19.3961 119.7 
121.044 -23.4104 108.853 
121.044 -19.0085 16.4965 
121.044 -18.4102 60.6473 
121.044 -22.0898 83.3118 
121.044 -16.4528 -57.6591 
121.044 -18.1516 -11.0733 
121.044 -20.0905 39.8857 
121.044 -17.64 2.86985 
121.044 -18.1312 82.0818 
121.044 -15.7033 -53.3441 
121.044 -20.0426 11.2194 
121.044 -16.7939 35.5396 
121.044 -19.241 8.35189 
121.044 -15.371 104.698 
121.044 -16.2062 -88.3815 
121.044 -17.5512 58.4965 
117.955 -17.9609 48.7819 
117.955 -17.5429 99.8081 
117.955 -24.3572 61.5546 
117.955 -19.4532 64.9468 
117.955 -19.05 84.8612 
117.955 -16.0103 110.799 
117.955 -24.4703 -83.8839 
117.955 -24.1891 106.742 
117.955 -21.9722 72.7746 
117.955 -22.1057 32.9493 
117.955 -18.9374 56.2482 
117.955 -21.3455 82.4367 
117.955 -21.1381 105.265 
117.955 -19.1392 71.0424 
117.955 -23.9069 1.60599 
117.955 -18.1868 108.536 
117.955 -20.7489 109.595 
117.955 -21.0735 76.9449 
117.955 -22.0043 93.8764 
117.955 -20.3504 47.1647 
117.955 -22.0434 -45.2046 
117.955 -16.56 -17.5356 
117.955 -16.3327 -2.90281 
117.955 -16.747 -46.4609 
117.955 -21.563 -59.0315 
117.955 -18.9822 -13.0584 
117.955 -18.686 -88.8013 
117.955 -15.2954 -98.2907 
117.955 -18.0517 4.98881 
117.955 -19.2003 -36.5214 
117.955 -19.1832 -28.1582 
117.955 -18.573 -6.20116 
117.955 -21.4364 -68.7886 
117.955 -22.5102 -70.659 
117.955 -15.556 -66.4383 
117.955 -16.1199 -34.5637 
117.955 -15.6968 -51.6657 
117.955 -15.5099 -21.1776 
117.955 -17.8702 -20.4655 
117.955 -19.1719 -104.604 
117.955 -22.4668 -77.9174 
117.955 -18.3226 -94.5353 
117.968 -24.6135 -99.5778 
119.036 -24.6135 -24.6394 
119.287 -24.6135 -13.848 
118.404 -24.6135 -43.2386 
119.343 -24.6135 -40.9952 
120.003 -24.6135 -71.9404 
120.038 -24.6135 -94.5817 
121.038 -24.6135 -78.019 
119.904 -24.6135 102.536 
120.95 -24.6135 40.04 
120.167 -24.6135 -12.1733 
120.714 -24.6135 -40.6928 
120.645 -24.6135 79.2693 
120.955 -24.6135 2.22289 
118.083 -15.2073 -84.3984 
118.452 -15.2073 -21.2528 
118.76 -15.2073 74.0704 
118.988 -15.2073 15.01 
119.412 -15.2073 110.519 
118.072 -15.2073 -5.38647 
118.305 -15.2073 -86.1714 
118.239 -15.2073 -100.852 
120.084 -15.2073 -101.363 
119.382 -15.2073 -68.7732 
119.862 -15.2073 15.6843 
121.001 -15.2073 -8.38903 
120.206 -15.2073 -58.2019 
120.868 -15.2073 -54.3295 
85.0308 55.0358 -0.214531 
85.0308 54.9367 -78.4179 
85.0308 55.2258 -31.2535 
85.0308 54.4846 -9.83226 
85.0308 54.4688 -54.3441 
85.0308 56.5597 -49.2627 
85.0308 55.8275 -8.52822 
85.0308 57.7369 -84.6011 
85.0308 57.5954 -45.83 
85.0308 56.2814 76.9395 
85.0308 56.5286 93.756 
85.0308 56.2452 80.4487 
85.0308 56.7022 102.95 
85.0308 56.4874 50.9986 
81.9414 54.6922 -21.2124 
81.9414 57.4484 99.5582 
81.9414 57.0167 61.7487 
81.9414 54.3372 -5.61649 
81.9414 55.1797 81.732 
81.9414 54.9437 -26.3517 
81.9414 54.3685 -89.0684 
81.9414 57.29 -19.5214 
81.9414 56.8467 4.70292 
81.9414 55.2487 -94.1491 
81.9414 56.795 -6.69613 
81.9414 57.3527 -66.2402 
81.9414 55.3354 -39.7977 
81.9414 56.9093 5.18487 
82.802 54.226 39.0801 
82.8289 54.226 -29.1436 
82.2928 54.226 -45.2179 
82.1854 54.226 -89.6835 
82.0164 54.226 -61.052 
82.562 54.226 43.751 
84.1655 54.226 -8.33058 
84.1899 54.226 32.7329 
84.0293 54.226 64.6098 
84.0611 54.226 89.0749 
84.2926 54.226 93.1328 
83.9864 54.226 25.8486 
82.936 57.7923 61.2787 
82.8559 57.7923 101.199 
83.3877 57.7923 14.6351 
82.6392 57.7923 55.6872 
82.1889 57.7923 48.8941 
83.6084 57.7923 9.83155 
84.8222 57.7923 11.2426 
83.0244 57.7923 -96.0491 
84.6743 57.7923 -30.1113 
84.1751 57.7923 -71.4524 
83.8869 57.7923 -99.1609 
84.0153 57.7923 -68.0113 
85.0308 65.2342 -67.8806 
85.0308 65.5379 9.73202 
85.0308 65.1934 31.3545 
85.0308 66.1266 -36.5147 
85.0308 65.9694 -69.9807 
85.0308 67.4811 -45.4066 
85.0308 66.4055 28.6023 
85.0308 67.7899 63.3408 
85.0308 65.9949 62.4615 
85.0308 67.168 -8.08741 
85.0308 66.1683 81.3182 
85.0308 67.3289 46.7586 
81.9414 66.4158 59.6361 
81.9414 67.6352 69.4287 
81.9414 68.0931 80.3157 
81.9414 66.935 39.0076 
81.9414 65.0676 -25.266 
81.9414 65.8268 -60.8009 
81.9414 68.4176 42.2789 
81.9414 66.1502 -64.1018 
81.9414 68.2282 -78.738 
81.9414 67.926 43.3956 
83.1974 64.9326 -20.3679 
82.5955 64.9326 34.5195 
82.0106 64.9326 -72.0719 
82.2193 64.9326 -76.7549 
82.0593 64.9326 72.5263 
84.4211 64.9326 16.2664 
84.7578 64.9326 18.904 
83.5135 64.9326 17.0502 
84.1913 64.9326 -23.992 
84.1092 64.9326 56.6349 
83.5711 68.4989 73.2776 
82.3132 68.4989 7.26153 
83.5503 68.4989 55.6651 
83.1942 68.4989 39.4116 
83.1465 68.4989 5.22682 
84.9243 68.4989 77.237 
84.3801 68.4989 -17.966 
82.1693 68.4989 -78.6369 
84.6462 68.4989 -23.8062 
83.8753 68.4989 -17.376 
-120.071 -22.7572 83.9671 
-120.071 -23.0373 57.7018 
-120.071 -22.2521 109.62 
-120.071 -16.688 87.1232 
-120.071 -20.6333 39.9859 
-120.071 -22.7638 50.0356 
-120.071 -18.1564 108.476 
-120.071 -20.2319 84.1397 
-120.071 -19.8735 90.9938 
-120.071 -23.1194 73.66 
-120.071 -21.402 24.9574 
-120.071 -17.7602 95.0263 
-120.071 -18.8128 103.249 
-120.071 -16.6558 97.5896 
-120.071 -24.537 -11.221 
-120.071 -19.9838 39.4953 
-120.071 -22.9553 104.29 
-120.071 -21.353 71.2015 
-120.071 -21.6057 75.2165 
-120.071 -20.7671 111.671 
-120.071 -21.6299 50.4047 
-120.071 -17.3326 -20.6862 
-120.071 -20.1079 -108.086 
-120.071 -17.6268 -0.548656 
-120.071 -19.0813 -10.5175 
-120.071 -16.7936 47.8108 
-120.071 -18.9353 -68.408 
-120.071 -15.971 61.4343 
-120.071 -17.7589 0.525745 
-120.071 -19.8622 -4.31804 
-120.071 -15.5662 2.2683 
-120.071 -18.9467 -69.8425 
-120.071 -17.6381 -41.3027 
-120.071 -18.8989 -11.8237 
-120.071 -16.1618 11.661 
-120.071 -18.7846 -17.5848 
-120.071 -22.6149 -72.0829 
-120.071 -15.7009 -92.0564 
-120.071 -16.8812 -92.2386 
-120.071 -18.5476 28.199 
-120.071 -16.3911 20.7106 
-120.071 -23.3831 -108.315 
-116.981 -20.0274 -38.8214 
-116.981 -21.6724 -47.4747 
-116.981 -18.1396 -43.687 
-116.981 -15.2836 21.243 
-116.981 -21.99 -65.0807 
-116.981 -16.8215 -89.8661 
-116.981 -18.8622 -97.6568 
-116.981 -17.5387 50.9578 
-116.981 -15.7164 -72.9662 
-116.981 -22.4178 -82.8336 
-116.981 -18.5737 22.1569 
-116.981 -18.7291 -13.0455 
-116.981 -20.2886 -103.169 
-116.981 -18.1602 -66.2331 
-116.981 -20.8865 -30.604 
-116.981 -16.9256 -56.2138 
-116.981 -21.1865 -37.2212 
-116.981 -19.2278 -21.3799 
-116.981 -23.1822 -93.6586 
-116.981 -17.0811 -114.82 
-116.981 -21.0208 -72.1831 
-116.981 -18.3058 57.7978 
-116.981 -19.8665 41.7642 
-116.981 -22.2891 17.3254 
-116.981 -22.7347 -26.3817 
-116.981 -23.001 45.817 
-116.981 -20.866 72.4854 
-116.981 -19.9554 57.334 
-116.981 -21.8385 104.972 
-116.981 -22.7363 58.0995 
-116.981 -21.6909 -32.6606 
-116.981 -21.8875 5.99796 
-116.981 -19.7978 12.1759 
-116.981 -24.254 84.7877 
-116.981 -22.8059 54.8987 
-116.981 -22.84 -50.5146 
-116.981 -17.333 89.4268 
-116.981 -23.1528 -75.7641 
-116.981 -19.6855 68.4099 
-116.981 -18.6019 60.6711 
-116.981 -24.2362 30.326 
-116.981 -23.9557 -95.4176 
65.9466 -21.962 120.071 
-77.6826 -15.276 120.071 
102.71 -22.7768 120.071 
-58.7099 -17.1129 120.071 
74.0367 -18.8126 120.071 
-85.5574 -15.5428 120.071 
83.8231 -16.6105 120.071 
37.6774 -17.0475 120.071 
100.485 -17.5231 120.071 
-62.6232 -16.0744 120.071 
41.0252 -15.3458 120.071 
36.2429 -16.0853 120.071 
58.538 -21.4329 120.071 
109.164 -17.6094 120.071 
71.5477 -15.347 120.071 
87.0377 -20.7176 120.071 
50.1403 -16.0304 120.071 
111.612 -16.0572 120.071 
11.4893 -15.7108 120.071 
-40.5858 -17.5412 120.071 
39.9548 -20.0173 120.071 
86.887 -20.2923 120.071 
-99.5459 -24.544 120.071 
30.9418 -22.7655 120.071 
-96.0106 -18.209 120.071 
-11.7805 -23.5024 120.071 
-57.392 -23.9763 120.071 
-16.9238 -23.1772 120.071 
-49.4944 -20.656 120.071 
39.2656 -21.5312 120.071 
6.72522 -20.6524 120.071 
-107.375 -23.2815 120.071 
-16.9028 -20.1183 120.071 
-68.578 -20.3975 120.071 
-68.8119 -21.3386 120.071 
39.5963 -21.4671 120.071 
-34.7029 -24.3262 120.071 
-45.1303 -19.9987 120.071 
30.2556 -21.4414 120.071 
-63.4227 -18.4786 120.071 
-62.548 -21.8049 120.071 
-27.5447 -19.6596 120.071 
49.9922 -23.2892 120.071 
-46.3788 -24.2297 116.981 
-39.6568 -20.485 116.981 
34.7586 -22.6059 116.981 
-36.5671 -18.7379 116.981 
19.4604 -22.5542 116.981 
-94.919 -16.4039 116.981 
-76.8891 -19.5913 116.981 
-70.2429 -22.6375 116.981 
-82.2085 -22.0119 116.981 
-89.2934 -20.253 116.981 
-85.0142 -17.7023 116.981 
-103.973 -20.754 116.981 
-23.0643 -22.1468 116.981 
60.8965 -22.911 116.981 
-104.893 -17.9025 116.981 
-22.6403 -21.2346 116.981 
-37.6384 -21.4482 116.981 
-42.5222 -24.0492 116.981 
4.99835 -20.8352 116.981 
-52.9096 -21.6357 116.981 
9.47319 -15.7447 116.981 
-39.2606 -15.5986 116.981 
87.6889 -19.7801 116.981 
108.534 -22.3394 116.981 
22.954 -17.7656 116.981 
96.4858 -22.3131 116.981 
-38.6339 -15.673 116.981 
117.622 -23.8458 116.981 
28.7947 -19.4835 116.981 
-81.3883 -15.7432 116.981 
20.7501 -20.2123 116.981 
4.51994 -15.6824 116.981 
42.9356 -18.7724 116.981 
-31.7337 -15.5268 116.981 
83.0365 -18.1259 116.981 
-18.7151 -15.9807 116.981 
39.8178 -20.7391 116.981 
101.185 -23.2732 116.981 
51.0181 -16.1948 116.981 
3.22404 -17.1504 116.981 
63.6897 -18.6064 116.981 
-35.0233 -24.6135 119.289 
-63.751 -24.6135 119.386 
41.3607 -24.6135 118.272 
19.2909 -24.6135 119.279 
50.0506 -24.6135 118.975 
29.3032 -24.6135 118.639 
106.756 -24.6135 119.683 
-87.6025 -24.6135 118.995 
-83.1898 -24.6135 119.241 
-77.1341 -24.6135 117.985 
-53.7201 -24.6135 118.113 
-46.6364 -24.6135 119.012 
-101.628 -24.6135 118.006 
28.0571 -15.2073 116.996 
-81.6001 -15.2073 117.108 
-94.3482 -15.2073 117.326 
-25.0373 -15.2073 117.322 
-85.9932 -15.2073 118.194 
4.03176 -15.2073 117.57 
-44.8452 -15.2073 117.108 
49.6753 -15.2073 119.537 
