ply
format ascii 1.0
comment Author: CloudCompare (TELECOM PARISTECH/EDF R&D)
obj_info Generated by CloudCompare!
element vertex 1831
property float x
property float y
property float z
end_header
-7.97104 -23.3599 -99.7996 
-4.3289 -23.3599 -101.964 
60.9574 -23.3599 -23.854 
96.5421 -23.3599 51.302 
109.147 -23.3599 -109.536 
55.0619 -23.3599 -8.3548 
76.4292 -23.3599 -46.2395 
19.5089 -23.3599 -113.946 
-45.7648 -23.3599 -85.4212 
-81.8479 -23.3599 -108.337 
94.148 -23.3599 62.7399 
61.1319 -23.3599 -27.6064 
120.678 -23.3599 -105.751 
-6.29565 -23.3599 -13.4204 
-10.689 -23.3599 -114.359 
49.1653 -23.3599 44.5191 
57.5513 -23.3599 -92.8254 
74.6801 -23.3599 6.68635 
-101.442 -23.3599 -108.811 
82.0893 -23.3599 -83.5273 
119.354 -23.3599 116.727 
16.9238 -23.3599 -112.151 
66.0016 -23.3599 -53.9129 
-32.7516 -23.3599 -66.0182 
108.623 -23.3599 90.8002 
6.28389 -23.3599 -56.7541 
119.984 -23.3599 -50.9527 
115.568 -23.3599 95.6289 
58.9288 -23.3599 19.4147 
42.6889 -23.3599 11.7103 
-30.0577 -23.3599 -112.407 
-18.6561 -23.3599 -72.4893 
44.8722 -23.3599 -16.9164 
20.605 -23.3599 -53.3964 
5.04212 -23.3599 -42.4959 
-54.8912 -23.3599 -120.527 
25.3503 -23.3599 -21.5798 
-64.6831 -23.3599 -120.138 
65.0747 -23.3599 -42.9342 
91.6879 -23.3599 -66.7465 
55.8972 -23.3599 17.3452 
-31.3299 -23.3599 -114.338 
77.7252 -23.3599 -96.4605 
-28.588 -23.3599 -39.1678 
76.3525 -23.3599 74.2132 
39.3684 -23.3599 -93.7592 
54.817 -23.3599 37.4383 
47.3196 -23.3599 24.2588 
22.0141 -23.3599 -112.344 
48.1754 -23.3599 -62.7739 
79.4595 -23.3599 44.4018 
77.6964 -23.3599 -77.265 
83.7431 -23.3599 -115.099 
94.3076 -23.3599 25.6087 
67.7447 -23.3599 -87.6921 
-81.8557 -23.3599 -87.7244 
-50.2501 -23.3599 -81.2296 
-57.5882 -23.3599 -92.7375 
42.5854 -23.3599 -116.991 
-2.10356 -23.3599 -38.7818 
114.026 -23.3599 -45.2743 
-78.2655 -23.3599 -80.4177 
13.9291 -23.3599 -23.5308 
90.7577 -23.3599 -92.5382 
105.756 -23.3599 -105.858 
70.2486 -23.3599 -82.6158 
-15.92 -23.3599 -53.383 
67.6194 -23.3599 64.4706 
42.9794 -23.3599 33.1404 
92.4225 -23.3599 18.7022 
114.442 -23.3599 -36.0468 
-42.8191 -23.3599 -104.56 
-75.5119 -23.3599 -104.84 
-36.4367 -23.3599 -96.5066 
94.1105 -23.3599 51.2537 
32.2629 -23.3599 -120.689 
40.5933 -23.3599 -52.6266 
-34.2881 -23.3599 -85.7609 
22.854 -23.3599 -109.654 
97.3295 -23.3599 -121.148 
34.2857 -23.3599 -34.6806 
110.461 -23.3599 -41.5931 
40.9219 -23.3599 -116.868 
82.6854 -23.3599 -95.0448 
-40.6805 -23.3599 -76.0057 
2.71985 -23.3599 -32.487 
-40.5331 -23.3599 -90.6169 
-48.5547 -23.3599 -56.8069 
112.818 -23.3599 31.9775 
-56.3591 -23.3599 -69.8063 
106.405 -23.3599 85.9357 
57.7563 -23.3599 -73.9495 
59.7659 -23.3599 -13.9507 
34.3595 -23.3599 -15.9768 
-49.2899 -23.3599 -109.212 
-16.0173 -23.3599 -91.0168 
76.9884 -23.3599 73.3916 
69.281 -23.3599 -88.6402 
109.647 -23.3599 77.2702 
45.6167 -23.3599 -67.5936 
-88.7832 -23.3599 -104.68 
-24.9947 -23.3599 -94.9374 
117.531 -23.3599 92.2413 
117.941 -23.3599 -6.10005 
32.006 -23.3599 -99.7587 
76.5128 -23.3599 -80.2867 
-55.7158 -23.3599 -83.7018 
96.7135 -23.3599 -49.9826 
52.7387 -23.3599 -63.8749 
24.5342 -23.3599 -8.73731 
97.0752 -23.3599 -50.5873 
-75.1511 -23.3599 -87.9671 
6.56048 -23.3599 -70.9975 
93.1731 -23.3599 -40.66 
-6.92139 -23.3599 -33.1657 
-12.487 -23.3599 -25.6055 
118.025 -23.3599 8.09963 
-41.1349 -23.3599 -98.5928 
84.0975 -23.3599 21.792 
91.6477 -23.3599 -48.2822 
104.048 -23.3599 -76.3929 
23.8024 -23.3599 -0.498215 
-68.0463 -23.3599 -103.068 
104.292 -23.3599 -100.624 
6.9251 -23.3599 -90.4329 
36.861 -23.3599 -115.819 
60.7659 -23.3599 -31.1872 
-46.0381 -23.3599 -70.2663 
71.6214 -23.3599 -13.4767 
20.2995 -23.3599 -17.6751 
97.1053 -23.3599 59.4938 
-28.4113 -23.3599 -67.6405 
89.4798 -23.3599 6.21033 
-109.504 -23.3599 102.723 
-49.4425 -23.3599 9.70124 
106.405 -23.3599 107.088 
31.9983 -23.3599 40.3191 
-107.889 -23.3599 57.1177 
-103.296 -23.3599 41.8297 
-85.4391 -23.3599 52.3242 
-90.1976 -23.3599 -20.8092 
-83.0266 -23.3599 -0.444443 
-7.31982 -23.3599 23.9862 
-100.318 -23.3599 -89.55 
-97.117 -23.3599 -21.4938 
69.8967 -23.3599 80.6999 
44.0778 -23.3599 73.0004 
-53.4301 -23.3599 120.552 
-115.353 -23.3599 -113.355 
-99.3569 -23.3599 -81.118 
-89.5574 -23.3599 54.2786 
-77.4237 -23.3599 91.1226 
-32.0354 -23.3599 -26.7906 
-91.349 -23.3599 42.5526 
-105.564 -23.3599 111.887 
-61.7964 -23.3599 -10.5546 
-66.0854 -23.3599 -54.3322 
-93.1693 -23.3599 6.31923 
-103.187 -23.3599 63.6039 
-76.2472 -23.3599 -44.3514 
-25.5975 -23.3599 49.8358 
-92.4171 -23.3599 116.243 
-26.5587 -23.3599 87.0089 
5.29134 -23.3599 96.2218 
-72.1729 -23.3599 76.9589 
-52.3815 -23.3599 -24.8562 
-84.5114 -23.3599 -63.5646 
-16.9383 -23.3599 -5.89061 
-98.1881 -23.3599 46.6112 
-71.8081 -23.3599 -47.4615 
-76.5319 -23.3599 90.8861 
71.188 -23.3599 118.742 
61.9733 -23.3599 68.7666 
-25.133 -23.3599 33.7665 
11.6746 -23.3599 74.2773 
-6.47612 -23.3599 37.1359 
-81.4299 -23.3599 3.17249 
-49.0389 -23.3599 -41.0368 
-36.3453 -23.3599 -0.440666 
-69.8357 -23.3599 6.79449 
-109.454 -23.3599 -12.2586 
-64.1447 -23.3599 27.7891 
23.6715 -23.3599 108.357 
-0.484192 -23.3599 30.1294 
-21.7621 -23.3599 82.7567 
-72.9853 -23.3599 81.1583 
-119.25 -23.3599 55.4434 
39.7409 -23.3599 72.99 
-53.7334 -23.3599 34.2032 
-95.1057 -23.3599 -50.5874 
39.4986 -23.3599 86.6552 
-121.597 -23.3599 -10.5062 
-101.613 -23.3599 49.3383 
-97.4752 -23.3599 100.865 
-42.4219 -23.3599 -9.30107 
-41.0872 -23.3599 107.448 
-101.172 -23.3599 -49.2254 
78.5145 -23.3599 90.3152 
40.2123 -23.3599 66.5711 
-56.5318 -23.3599 119.522 
93.2293 -23.3599 117.967 
-44.5353 -23.3599 54.5566 
-12.9104 -23.3599 98.5778 
-10.5988 -23.3599 48.1355 
-22.514 -23.3599 20.0023 
-37.4819 -23.3599 85.1606 
-95.3963 -23.3599 -61.4226 
-108.127 -23.3599 73.2169 
-6.7908 -23.3599 34.2796 
-121.251 -23.3599 83.6748 
79.8527 -23.3599 103.071 
-25.8166 -23.3599 71.186 
15.3645 -23.3599 54.2643 
-39.7064 -23.3599 116.953 
-3.111 -23.3599 117.365 
-116.705 -23.3599 -13.9452 
-119.04 -23.3599 115.641 
-43.9148 -23.3599 39.8938 
77.9176 -23.3599 87.0813 
-59.9733 -23.3599 -1.7832 
-41.1157 -23.3599 98.0894 
90.6858 -23.3599 95.9289 
-78.8586 -23.3599 -69.6662 
-84.3054 -23.3599 -8.26372 
-118.994 -23.3599 -70.9186 
7.85654 -23.3599 88.1373 
21.3015 -23.3599 26.4985 
3.16724 -23.3599 63.0184 
-112.994 -23.3599 -14.3883 
-0.956802 -23.3599 121.699 
-78.9458 -23.3599 73.3192 
-67.1204 -23.3599 74.5349 
18.6809 -23.3599 66.4984 
-112.867 -23.3599 -37.3013 
-91.0748 -23.3599 59.9391 
-105.158 -23.3599 31.4926 
-86.2608 -23.3599 -79.7592 
-32.9415 -23.3599 89.4154 
-62.2227 -23.3599 63.44 
-51.7259 -23.3599 2.79577 
31.1439 -23.3599 120.926 
17.1032 -23.3599 111.474 
-10.5485 -23.3599 9.55465 
-80.861 -23.3599 -26.852 
-52.7621 -23.3599 96.9594 
66.6004 -23.3599 121.457 
-68.1308 -23.3599 68.1689 
-57.2721 -23.3599 44.7895 
9.95379 -23.3599 64.9241 
-119.394 -23.3599 110.94 
-51.0315 -23.3599 58.1551 
-75.415 -23.3599 62.0881 
-115.581 -23.3599 77.1756 
-121.558 -23.3599 40.0945 
-52.65 -23.3599 120.252 
-75.6769 -23.3599 19.8897 
-96.4321 -23.3599 -62.3317 
34.5286 -23.3599 82.5625 
-116.214 -23.3599 30.9767 
-120.69 -23.3599 -5.84731 
31.3984 -23.3599 111.772 
-110.951 -23.3599 113.689 
-105.919 -23.3599 34.7007 
-4.32716 -23.3599 10.1392 
62.8935 -23.3599 104.645 
-85.3774 -23.3599 33.2955 
28.458 -23.3599 36.6065 
-10.2274 -23.3599 39.9644 
-88.9879 -23.3599 104.883 
57.9614 -23.3599 83.1758 
-100.573 -23.3599 101.407 
-35.4506 -23.3599 108.735 
-36.1306 -23.3599 105.656 
29.0001 -23.3599 60.2935 
-31.0027 -23.3599 -26.5446 
-31.8978 -23.3599 95.855 
-120.348 -23.3599 -55.8913 
-79.5449 -23.3599 24.6056 
20.5716 -23.3599 97.7219 
-2.14748 -23.3599 114.05 
71.1905 -23.3599 114.969 
-93.724 -23.3599 12.2824 
-2.67356 -23.3599 66.9544 
-81.6254 -23.3599 -39.081 
0.848099 -23.3599 96.4386 
-18.7675 -23.3599 3.85094 
-68.3955 -23.3599 67.0072 
-81.2093 -23.3599 51.0288 
-101.854 -23.3599 92.2515 
30.7595 -23.3599 116.335 
35.6326 -23.3599 107.715 
-96.8487 -23.3599 119.883 
12.4149 -23.3599 52.2999 
23.9045 -23.3599 89.8239 
-118.253 -23.3599 -44.4385 
-112.689 -23.3599 -112.161 
10.3538 -23.3599 25.273 
-28.6501 -23.3599 2.4396 
-103.6 -23.3599 -6.03265 
-59.8139 -23.3599 113.415 
-28.6473 -23.3599 35.2865 
2.42023 -23.3599 5.86686 
20.9701 -23.3599 77.2846 
-110.932 -23.3599 2.08641 
13.3246 -23.3599 115.848 
80.2711 -23.3599 98.3318 
19.1837 -23.3599 19.5354 
52.3221 -23.3599 69.9139 
-83.3176 -23.3599 114.575 
-44.1361 -23.3599 -5.34123 
-48.6411 -23.3599 -44.9411 
-58.2317 -23.3599 99.0656 
8.63413 -23.3599 107.615 
-8.25453 -23.3599 3.51139 
-115.817 -23.3599 37.2242 
-52.9114 -23.3599 -27.3391 
31.9059 -23.3599 50.7906 
-95.0761 -23.3599 -84.5352 
-88.3689 -23.3599 107.264 
-7.1437 -23.3599 57.476 
42.1328 -23.3599 62.1393 
-54.5818 -43.9228 18.6719 
-32.5849 -43.9228 78.3148 
-19.1701 -43.9228 90.894 
-113.072 -43.9228 -58.5301 
-114.073 -43.9228 -19.1188 
-103.972 -43.9228 -56.9229 
-88.6628 -43.9228 53.2008 
-53.7604 -43.9228 -20.6748 
-114.204 -43.9228 -16.1374 
-25.5518 -43.9228 45.7516 
-66.4566 -43.9228 17.4252 
-117.75 -43.9228 71.8168 
-76.5639 -43.9228 -37.0309 
-27.5287 -43.9228 -8.74422 
70.5728 -43.9228 72.7778 
-95.4209 -43.9228 45.6481 
-5.51624 -43.9228 78.7539 
-42.4639 -43.9228 12.8906 
0.632484 -43.9228 15.3483 
-61.4895 -43.9228 -8.27377 
-64.8565 -43.9228 17.4485 
8.53089 -43.9228 55.6243 
-65.3271 -43.9228 71.205 
-50.6389 -43.9228 -6.2001 
-31.3858 -43.9228 57.1784 
-113.013 -43.9228 88.7525 
63.4993 -43.9228 90.2474 
62.593 -43.9228 75.5481 
-42.7325 -43.9228 -23.8969 
6.67963 -43.9228 30.1522 
-61.9402 -43.9228 1.3441 
8.3466 -43.9228 88.7736 
52.1162 -43.9228 70.9884 
-51.1789 -43.9228 2.08483 
-55.3034 -43.9228 15.1359 
58.6048 -43.9228 87.1478 
8.56667 -43.9228 90.3046 
-18.268 -43.9228 35.7927 
-116.575 -43.9228 9.30883 
-103.713 -43.9228 -54.8934 
35.2427 -43.9228 31.8783 
-15.9504 -43.9228 -2.91093 
-52.6024 -43.9228 44.2734 
-38.4219 -43.9228 6.59649 
-9.39918 -43.9228 80.4273 
-39.7508 -43.9228 9.64698 
-69.9181 -43.9228 -1.02028 
16.5753 -43.9228 66.867 
-76.9231 -43.9228 85.5019 
-92.2139 -43.9228 69.0546 
-22.8113 -43.9228 38.2337 
-84.12 -43.9228 -44.5473 
-111.419 -43.9228 -61.2181 
-77.7687 -43.9228 -32.9366 
-107.976 -43.9228 -19.3703 
112.771 -43.9228 94.6211 
-62.5408 -43.9228 64.36 
-105.717 -43.9228 41.591 
-93.4255 -43.9228 -41.8058 
95.8926 -43.9228 80.0445 
85.4265 -43.9228 73.581 
-77.6281 -43.9228 -34.1619 
-5.6095 -43.9228 13.9154 
-96.5389 -43.9228 54.0352 
96.4127 -43.9228 75.7814 
23.4779 -43.9228 54.6002 
-105.002 -43.9228 -16.6667 
-75.379 -43.9228 -20.1848 
-96.4302 -43.9228 -36.8206 
-1.80185 -43.9228 73.4407 
-14.2701 -43.9228 74.753 
-103.811 -43.9228 16.3777 
4.35931 -43.9228 33.7292 
-82.5097 -43.9228 51.7565 
-78.627 -43.9228 33.9825 
49.2023 -43.9228 80.9808 
44.8762 -43.9228 41.6732 
-95.5483 -43.9228 22.9626 
-0.20211 -43.9228 82.5586 
-45.5462 -43.9228 36.2996 
-121.943 -43.9228 84.6656 
-55.5397 -43.9228 66.2698 
-22.1255 -43.9228 32.8889 
-29.3815 -43.9228 25.2159 
-30.7503 -43.9228 72.148 
-38.091 -43.9228 31.633 
23.1704 -43.9228 29.9639 
-97.1068 -43.9228 53.6139 
-107.125 -43.9228 74.8362 
-95.4246 -43.9228 69.8815 
-12.1086 -43.9228 46.0209 
-73.5207 -43.9228 10.4205 
-13.4894 -43.9228 23.0281 
-71.5884 -43.9228 7.69849 
-93.7335 -43.9228 -49.1924 
-31.7553 -43.9228 10.7427 
23.1278 -43.9228 60.3899 
-17.9295 -43.9228 72.4921 
-73.4805 -43.9228 23.9581 
-50.0485 -43.9228 83.0936 
-20.4606 -43.9228 81.121 
-103.114 -43.9228 88.2036 
-99.7951 -43.9228 45.0137 
-26.3687 -43.9228 9.10226 
-112.407 -43.9228 -39.6322 
26.918 -43.9228 47.5318 
30.4346 -43.9228 45.2578 
-117.513 -43.9228 74.79 
-7.36794 -43.9228 81.1355 
14.4365 -43.9228 93.0391 
-25.1336 -43.9228 57.5748 
-41.4025 -43.9228 88.821 
-120.329 -43.9228 20.4426 
-77.0695 -43.9228 19.3997 
-40.7663 -43.9228 34.3121 
-70.5969 -43.9228 73.5668 
-34.021 -43.9228 20.8385 
-5.13672 -43.9228 36.2336 
10.4122 -43.9228 14.7326 
-63.7855 -43.9228 30.259 
-84.1525 -43.9228 -2.33986 
-108.142 -43.9228 -20.1378 
33.8498 -43.9228 68.3617 
-104.786 -43.9228 -67.5417 
-22.3615 -43.9228 6.44985 
-91.6083 -43.9228 77.1417 
-121.009 -43.9228 42.6268 
-64.1292 -43.9228 -38.8918 
-19.9718 -43.9228 68.7584 
8.53465 -43.9228 74.3382 
71.8661 -43.9228 89.8175 
-119.498 -43.9228 -11.9272 
-8.24359 -43.9228 93.6779 
-44.7821 -43.9228 43.538 
-89.9831 -43.9228 56.7684 
-54.2223 -43.9228 -22.0526 
-102.949 -43.9228 32.0885 
-100.562 -43.9228 92.5944 
-58.794 -43.9228 -39.2878 
2.07984 -43.9228 89.5195 
37.6895 -43.9228 24.5947 
98.8252 -43.9228 -22.8403 
102.47 -43.9228 62.9628 
6.17733 -43.9228 -16.8712 
42.1648 -43.9228 5.03619 
72.5856 -43.9228 -53.2405 
81.5533 -43.9228 -43.8371 
104.301 -43.9228 -71.9238 
-47.1023 -43.9228 -47.4294 
-65.1389 -43.9228 -49.3998 
-0.624615 -43.9228 -31.3239 
46.2543 -43.9228 -3.57932 
119.482 -43.9228 79.0818 
-20.9903 -43.9228 -59.4577 
-6.99056 -43.9228 -8.30198 
52.2053 -43.9228 -53.9495 
-37.2222 -43.9228 -59.6354 
-44.9976 -43.9228 -39.8365 
53.1528 -43.9228 -11.5057 
44.4652 -43.9228 -85.1363 
30.2648 -43.9228 23.5379 
121.126 -43.9228 -26.2089 
121.25 -43.9228 48.1619 
-56.8599 -43.9228 -43.9437 
82.1997 -43.9228 48.8786 
80.4198 -43.9228 -68.9138 
101.399 -43.9228 19.6485 
70.5386 -43.9228 -17.3244 
68.0823 -43.9228 48.3249 
-53.3978 -43.9228 -69.3186 
-74.4531 -43.9228 -70.6994 
89.7545 -43.9228 -27.8364 
51.9134 -43.9228 -54.4761 
5.61163 -43.9228 -45.9059 
76.2258 -43.9228 -57.5734 
106.499 -43.9228 56.6059 
109.995 -43.9228 -60.9629 
107.47 -43.9228 28.2272 
115.117 -43.9228 13.7548 
-79.6342 -43.9228 -70.163 
1.2177 -43.9228 -48.5763 
17.9919 -43.9228 -82.4254 
56.4297 -43.9228 -33.4916 
101.544 -43.9228 -52.3586 
50.0258 -43.9228 -5.27197 
19.6596 -43.9228 -58.387 
107.897 -43.9228 -36.2076 
68.7126 -43.9228 -18.0366 
69.736 -43.9228 -1.69611 
27.8096 -43.9228 -50.9407 
-22.115 -43.9228 -31.0832 
-105.923 -43.9228 -85.8447 
-110.359 -43.9228 -78.3569 
2.48341 -43.9228 -9.33657 
88.5827 -43.9228 -84.1571 
-28.2218 -43.9228 -83.667 
-71.156 -43.9228 -80.9133 
116.477 -43.9228 -73.0944 
94.8629 -43.9228 65.5627 
54.4246 -43.9228 -68.4963 
-39.4377 -43.9228 -36.6487 
74.6428 -43.9228 48.0041 
0.713252 -43.9228 -0.76638 
11.0854 -43.9228 -47.1628 
23.6154 -43.9228 -49.9068 
61.2321 -43.9228 -73.7424 
16.0394 -43.9228 -67.6351 
-43.054 -43.9228 -71.8134 
62.2027 -43.9228 -51.9982 
62.6971 -43.9228 -70.2988 
71.4487 -43.9228 28.0194 
51.5662 -43.9228 -70.6667 
65.3158 -43.9228 -35.2428 
12.7787 -43.9228 -82.8997 
62.3607 -43.9228 -27.3952 
63.1406 -43.9228 7.56487 
110.225 -43.9228 8.42381 
46.5106 -43.9228 6.01062 
-16.8902 -43.9228 -65.8155 
83.6691 -43.9228 2.66388 
109.753 -43.9228 71.8303 
55.8171 -43.9228 -16.1291 
91.9678 -43.9228 -0.990898 
-49.2125 -43.9228 -78.1488 
-19.0712 -43.9228 -62.7255 
-22.7305 -43.9228 -53.7404 
120.614 -43.9228 -58.0362 
91.9752 -43.9228 16.1318 
96.3302 -43.9228 -41.6021 
69.7484 -43.9228 -70.8447 
-70.5955 -43.9228 -73.839 
-37.9066 -43.9228 -73.4016 
-2.61255 -43.9228 -25.3601 
-1.89916 -43.9228 -73.0537 
-26.4961 -43.9228 -44.9599 
-40.1147 -43.9228 -86.2382 
11.3331 -43.9228 -49.3057 
76.5037 -43.9228 0.321198 
15.5302 -43.9228 0.81118 
46.8883 -43.9228 -39.4397 
-3.70167 -43.9228 -9.11337 
-72.0605 -43.9228 -73.6618 
-36.329 -43.9228 -77.7152 
41.8241 -43.9228 19.7421 
6.07378 -43.9228 1.06658 
83.9798 -43.9228 -37.7918 
80.1774 -43.9228 60.8151 
81.0286 -43.9228 -60.7898 
73.2469 -43.9228 31.4755 
90.7912 -43.9228 -10.5978 
27.0313 -43.9228 -7.59083 
43.6311 -43.9228 -10.7292 
107.461 -43.9228 -4.37679 
85.682 -43.9228 -78.6963 
10.4788 -43.9228 -22.7748 
92.9465 -43.9228 52.4248 
85.6355 -43.9228 -65.4079 
117.425 -43.9228 87.5171 
-56.9924 -43.9228 -58.431 
-4.53872 -43.9228 -86.6541 
104.204 -43.9228 35.2962 
-33.9112 -43.9228 -74.1943 
121.118 -43.9228 -24.1616 
115.229 -43.9228 39.6708 
-73.578 -43.9228 -84.2515 
34.0268 -43.9228 -3.80533 
99.3458 -43.9228 3.05673 
20.3724 -43.9228 -76.7699 
-56.1846 -43.9228 -75.1223 
108.049 -43.9228 -8.45642 
22.7238 -43.9228 -28.9162 
-37.5516 -43.9228 -33.1626 
80.6233 -43.9228 -35.2544 
83.991 -43.9228 -75.8931 
-71.1745 -43.9228 -76.3481 
-73.4113 -43.9228 -58.0871 
-73.8828 -43.9228 -80.6197 
-4.99972 -43.9228 -10.778 
112.609 -43.9228 7.25625 
93.059 -43.9228 25.9282 
-1.87365 149.421 -0.300848 
-11.365 149.421 4.06713 
0.154797 149.421 8.57037 
3.36225 149.421 11.3373 
0.453638 155.65 -7.39245 
10.3919 155.65 -5.02746 
1.95603 155.65 11.4703 
-3.66219 155.65 9.57471 
2.77139 149.462 12.3029 
-10.3798 149.811 12.3029 
-12.795 157.399 8.89398 
1.42972 155.65 5.51695 
-1.55211 155.65 6.01101 
-6.8672 155.65 -4.46988 
-4.49937 155.65 -12.0112 
-7.14883 157.597 5.49786 
0.676719 157.597 -10.9732 
-3.39441 157.597 7.35094 
-1.77365 157.597 2.07698 
-15.42 147.706 12.238 
-11.4406 144.69 14.5755 
14.5632 144.646 -6.96854 
-0.154249 146.95 -15.2084 
-7.21776 145.274 -14.739 
-1.73648 144.36 12.5951 
2.61955 144.36 6.68546 
1.49411 144.36 0.762592 
-4.05789 144.36 -4.83836 
-5.80549 144.36 -6.81209 
0.35087 144.36 -11.615 
-10.0379 148.253 4.47085 
-6.41085 148.253 -12.4678 
12.2993 148.253 -14.9542 
7.42685 148.253 -5.28709 
14.4298 148.253 11.3486 
5.67464 148.253 -1.79911 
2.26791 148.609 12.795 
5.17731 147.864 8.94553 
3.19578 147.864 3.83249 
-10.3859 147.864 -2.25614 
3.74716 147.864 -10.6051 
-7.8746 149.81 6.20417 
-5.0151 149.81 -12.7149 
-3.78436 149.81 4.62828 
-5.89488 149.81 6.03632 
35.7133 132.72 23.7319 
79.2011 106.223 79.0984 
55.7295 120.524 52.9774 
15.8874 144.8 6.64571 
32 134.982 31.5725 
29.6053 136.441 21.4953 
24.8565 139.335 11.9927 
25.649 138.852 -17.5851 
76.6662 107.768 15.6063 
53.1212 122.113 21.5914 
80.5238 105.417 -32.0609 
78.9461 106.379 51.0437 
70.2196 111.696 -0.537121 
32.9673 134.393 -17.1272 
65.3514 114.662 -29.8306 
82.3436 104.309 4.63123 
90.3323 99.4412 69.8194 
80.5764 105.385 29.7723 
47.3043 125.658 -2.31454 
49.0055 124.621 35.1437 
36.9616 131.959 19.3189 
59.8752 117.998 -21.0454 
87.3353 101.267 -62.0022 
45.7208 126.622 -45.8344 
74.1781 109.284 12.3435 
37.5215 131.618 -14.07 
44.1227 127.596 -10.0147 
84.8285 102.795 2.96648 
46.3083 126.264 25.282 
62.7542 116.244 -26.0862 
57.9859 119.149 -21.4042 
55.1688 120.866 38.1153 
80.3392 105.53 -43.7122 
45.7461 126.607 9.42183 
35.135 133.072 17.4458 
68.2017 112.925 15.96 
61.7759 116.84 -43.3368 
67.4926 113.357 29.9741 
32.1693 134.879 -31.6661 
76.6198 107.796 -53.8321 
79.3393 106.139 -26.3935 
70.8432 111.316 39.8376 
69.6698 112.031 -18.8562 
89.298 100.071 -58.0864 
81.7998 104.64 -26.0898 
96.8223 95.4869 -14.4057 
92.864 97.8987 -39.5945 
89.5817 99.8986 81.6049 
97.2029 95.2551 52.7979 
85.5076 102.381 -74.3732 
44.1117 127.603 -20.5163 
68.8074 112.556 -11.4202 
92.5303 98.102 -89.3454 
69.5827 112.084 -35.2405 
48.5477 124.9 -7.74484 
52.6782 122.383 -6.65289 
71.3258 111.022 -4.80238 
43.3039 128.095 -27.6921 
77.9235 107.002 60.125 
91.3627 98.8134 -50.0576 
48.5291 124.911 7.34038 
67.4983 113.354 -45.0009 
53.9076 121.634 -6.16927 
70.2743 111.662 62.9124 
82.4871 104.221 -71.5646 
55.9747 120.375 -54.0314 
28.3418 137.211 -11.304 
43.9528 127.7 0.830242 
74.1876 109.278 45.4551 
123.607 79.1672 -48.4481 
109.625 87.6863 -19.377 
106.519 89.5788 -2.83461 
106.532 89.5712 -16.0538 
118.748 82.1282 -3.94356 
124.366 78.705 -55.1365 
115.231 84.2711 -64.0696 
110.62 87.08 40.4905 
110.749 87.0013 -10.1122 
113.552 85.2938 29.0669 
112.663 85.8353 -42.2138 
114.055 84.987 -22.4721 
98.5424 94.4389 -53.7347 
125.762 77.8544 -12.6973 
116.873 83.2701 -15.2524 
104.047 91.0848 5.40482 
113.592 85.2695 16.4641 
121.313 80.5652 -68.6812 
102.97 91.7415 -23.3234 
106.527 89.5742 -13.4594 
107.041 89.261 -61.5374 
103.301 91.5394 -43.9379 
133.068 73.4028 -58.6486 
101.706 92.5111 -10.1615 
105.232 90.3631 -43.0957 
102.618 91.9558 12.9497 
97.9183 94.8192 75.5871 
111.068 86.8071 -10.0322 
110.866 86.9306 -41.4799 
109.843 87.5536 -80.155 
122.942 79.5726 48.066 
137.061 70.9701 -1.29902 
108.093 88.6195 60.6084 
138.222 70.2626 -49.8416 
118.573 82.2347 40.0822 
131.12 74.5901 23.1735 
109.355 87.8508 63.7945 
120.983 80.7661 69.2852 
137.006 71.0036 9.48518 
129.916 75.3232 -0.0768461 
119.754 81.5146 50.1738 
118.052 82.5518 71.2994 
132.245 73.9046 -27.5643 
116.347 83.5908 68.0087 
126.226 77.5715 1.19062 
107.163 89.1865 75.4306 
116.607 83.4327 74.7774 
126.824 77.2074 3.94106 
122.986 80.8181 85.1394 
116.722 86.6191 112.398 
134.488 79.0802 129.395 
114.73 86.6464 101.839 
133.033 79.666 127.666 
125.039 78.5581 72.414 
136.432 75.9131 106.475 
101.109 93.3045 98.1001 
118.554 84.4216 99.129 
111.09 87.6482 92.6165 
108.615 89.2391 95.9683 
123.742 81.152 92.7892 
136.453 67.1215 36.6528 
136.18 66.7313 8.13822 
137.398 68.4719 -32.026 
137.814 72.5528 93.7305 
135.828 71.1171 107.202 
124.913 66.9762 12.467 
127.124 66.8158 -66.3491 
121.975 67.1894 -26.1254 
133.12 66.3807 -23.2966 
110.932 67.9908 -79.9422 
114.167 67.756 -38.1082 
122.929 67.1202 -44.5227 
103.855 68.5044 -80.3067 
134.573 66.2752 -19.8921 
133.933 66.3217 -49.269 
116.991 67.5511 -27.5614 
123.569 67.0738 -19.5976 
128.772 66.6962 29.1974 
100.376 68.7569 -93.9477 
115.64 67.6492 -2.68938 
125.653 66.9226 18.549 
87.5005 69.6912 -71.895 
89.4903 69.5468 -77.3314 
106.92 68.282 -48.6106 
110.272 68.0387 -40.0476 
132.382 66.4342 45.6829 
100.575 68.7424 -67.2895 
105.669 68.3728 -42.2544 
82.3945 70.0618 14.5825 
112.994 67.8412 31.3291 
98.7995 68.8713 41.4799 
82.9542 70.0211 -5.7379 
93.4026 69.2629 68.3163 
118.43 67.4467 23.911 
100.668 68.7356 -17.4793 
90.7431 69.4559 67.1773 
130.04 66.6042 44.3698 
100.111 68.7761 27.0658 
101.717 68.6595 -14.8991 
115.37 67.6687 62.9923 
100.443 68.752 -28.4811 
93.1294 69.2827 8.83084 
103.005 68.5661 -21.6921 
100.063 68.7796 -7.55256 
97.3163 68.9789 36.0464 
98.3023 68.9073 6.08427 
86.3681 69.7734 -67.6401 
90.0028 69.5096 28.3094 
93.078 69.2865 -40.3124 
83.7414 69.964 -67.3016 
115.282 67.6752 23.7161 
91.4215 69.4067 73.8016 
93.9235 69.2251 -45.3773 
89.2692 69.5629 -26.5961 
117.177 67.5376 25.8336 
100.424 68.7534 89.387 
116.59 67.5802 70.8522 
130.148 66.5963 63.8197 
116.199 67.6086 70.8979 
116.307 68.8454 90.655 
108.098 69.7689 102.103 
127.07 67.2487 71.8345 
127.792 71.376 112.408 
133.117 72.5841 122.836 
123.991 67.3946 74.1466 
121.726 69.0009 90.6579 
135.674 68.277 79.5588 
131.067 72.2872 120.484 
112.403 70.6626 109.714 
62.25 82.365 118.42 
68.1994 89.8107 106.237 
-5.78058 70.5206 137.801 
35.3811 82.9088 117.53 
67.6983 88.6909 108.069 
62.8341 89.1752 107.277 
1.25297 70.373 138.042 
21.9745 72.1824 135.082 
83.2691 91.1279 104.082 
63.0203 77.8342 125.834 
62.708 87.8976 109.367 
18.7264 76.3785 128.216 
-17.784 75.9194 128.967 
60.1528 85.0756 113.985 
3.82225 75.3172 129.952 
41.3015 75.4854 129.677 
41.9251 77.0283 127.153 
-2.41686 89.4866 106.768 
-9.30466 94.8164 98.0465 
2.59008 80.09 122.143 
-30.2996 79.9694 122.34 
5.00614 89.9196 106.059 
-9.50607 93.8863 99.5684 
16.7392 89.5825 106.611 
2.82825 94.8762 97.9486 
-6.09179 87.8124 109.507 
-20.4859 94.7764 98.1121 
73.8262 91.73 103.097 
-61.6874 85.5993 113.128 
-91.3 95.1016 97.5799 
31.7997 84.8112 114.418 
59.0202 92.887 101.204 
48.0396 90.2731 105.481 
-36.5164 87.4669 110.072 
-54.0669 76.9758 127.238 
35.792 90.5253 105.068 
-40.9075 85.3566 113.525 
67.4226 92.9912 101.033 
-62.4521 85.3066 113.607 
21.5384 94.3527 98.8052 
25.0493 92.6785 101.545 
60.0749 92.7111 101.491 
-0.261311 80.4458 121.561 
47.1903 91.3751 103.677 
-7.50086 91.2142 103.941 
-34.0205 88.098 109.04 
-65.2285 87.873 109.408 
63.5181 97.6939 93.3381 
-1.16712 124.929 48.774 
16.3392 133.559 34.654 
74.3806 96.4986 95.294 
-42.1182 107.103 77.942 
-65.804 103.095 84.5006 
-17.1538 116.963 61.8093 
-13.1867 119.739 57.266 
10.1891 116.644 62.3301 
51.4844 108.483 75.6845 
48.189 111.163 71.3 
-5.41992 115.343 64.4593 
-48.0467 109.819 73.4981 
-45.3042 121.608 54.2085 
-72.9123 109.454 74.0948 
54.5217 97.8187 93.1339 
62.7698 96.9068 94.626 
-17.7243 133.436 34.8549 
-27.1007 121.439 54.4847 
-14.3087 145.538 15.0524 
-8.15264 124.073 50.1751 
-29.2693 119.079 58.3467 
26.0315 96.2321 95.73 
41.6671 121.482 54.414 
-42.9555 105.752 80.1538 
20.5767 104.65 81.9561 
-44.7785 118.654 59.0426 
69.004 99.03 91.1521 
-31.0384 128.145 43.5126 
-52.9804 105.998 79.7513 
-44.8796 107.035 78.0533 
-71.4342 99.4298 90.4978 
-52.6506 102.96 84.7209 
-70.9771 97.3231 93.9448 
67.1327 103.01 84.6396 
-17.9924 102.363 85.6988 
-30.5053 95.6691 96.6513 
-30.5074 116.744 62.1678 
-23.7648 133.01 35.5512 
-11.5529 114.877 65.2227 
23.4055 96.1775 95.8195 
-50.584 119.643 57.4234 
-34.7738 131.172 38.5596 
-27.3519 99.4154 90.5214 
-52.2827 95.3408 97.1884 
-8.07874 119.138 58.25 
-14.4471 113.794 66.9945 
-25.7933 138.52 26.5356 
-4.41593 110.684 72.0825 
40.1293 119.786 57.1902 
21.7359 120.005 56.8313 
-35.0977 98.2669 92.4006 
-17.8685 114.077 66.5314 
77.3467 100.544 88.6742 
26.9661 99.6918 90.0691 
-16.8569 120.528 55.9751 
-65.5503 105.15 81.1388 
14.0751 108.599 75.4949 
6.64364 136.59 29.6946 
11.4838 125.071 48.5425 
9.29887 100.178 89.2729 
-10.0808 107.41 77.4404 
67.0421 112.752 68.6995 
10.4147 147.181 12.3641 
16.5974 144.317 17.0498 
18.1391 135.611 31.2966 
24.2107 130.902 39.0018 
68.2338 110.451 72.4638 
17.5247 141.198 22.1542 
98.3689 78.5344 129.883 
86.9193 79.8243 125.291 
77.4034 82.2691 118.818 
120.12 77.6764 135.523 
107.966 84.4069 120.272 
100.269 85.5246 116.7 
75.2073 72.954 136.447 
61.6079 71.7133 136.36 
101.591 80.4915 126.684 
132.132 80.2693 132.702 
70.6285 75.94 129.829 
91.4971 75.8003 133.918 
5.62212 66.736 136.183 
-13.2774 67.201 136.509 
4.7907 69.1732 137.888 
131.462 74.0467 136.161 
113.052 72.3205 136.223 
43.742 66.1999 135.611 
27.6615 67.2779 120.757 
-18.4583 66.2081 135.497 
17.8469 67.2175 121.588 
63.6171 67.9687 111.237 
69.031 67.9548 111.429 
73.76 68.5192 103.651 
30.6514 66.6992 128.73 
45.3533 67.5071 117.598 
33.1751 66.284 134.452 
46.014 67.5245 117.358 
35.6124 66.9312 125.533 
64.9612 66.6754 129.059 
82.3485 68.1126 109.253 
50.6979 68.6 102.538 
73.5417 69.7493 86.6997 
86.3059 69.52 89.8604 
-21.5564 67.0707 123.611 
35.618 68.1789 108.341 
43.3929 68.8471 99.1323 
23.3652 68.2807 106.937 
23.7917 67.7539 114.197 
42.9196 68.891 98.5275 
-25.8838 68.4396 104.747 
-31.8852 68.3919 105.405 
-30.1218 67.3532 119.719 
-59.8205 67.4379 118.551 
-59.1396 68.7292 100.757 
7.91456 68.9809 97.2893 
5.48027 69.79 86.1396 
39.3184 69.5267 89.768 
-7.02501 69.0319 96.5866 
-54.0578 66.5015 131.455 
21.8313 68.6662 101.626 
-59.3316 67.2513 121.123 
-12.4064 68.2708 107.074 
-59.6978 67.6994 114.947 
-39.2474 69.1761 94.599 
-54.2327 69.7098 87.2439 
-5.89649 68.026 110.448 
-34.5634 67.8055 113.486 
-48.1345 68.8549 99.0256 
-12.275 69.3197 92.6199 
-44.4483 69.95 83.9349 
-16.7869 68.6882 101.322 
5.02543 69.6559 87.9869 
-35.1359 69.5541 89.3905 
-55.348 68.7026 101.123 
-10.5087 69.0695 96.0681 
-39.5781 67.4072 118.975 
-48.3184 69.992 83.3562 
-87.958 68.3394 106.129 
-84.2044 68.3044 106.611 
-83.6762 69.6476 88.1018 
-84.779 69.2267 93.9019 
96.376 69.1443 106.528 
120.39 72.0375 122.68 
96.8952 69.3738 112.706 
95.2056 69.3267 117.031 
110.619 71.2066 128.198 
67.7716 66.9681 131.63 
115.325 71.6099 125.649 
76.862 67.9622 134.213 
62.5115 66.4735 132.948 
27.6927 134.344 -33.3697 
-0.445694 144.126 -17.3628 
56.017 118.113 -59.9272 
42.3431 124.914 -48.7996 
38.9385 127.694 -44.2494 
-1.02484 145.623 -14.9137 
-6.5569 119.507 -57.6467 
-46.7724 107.364 -77.5146 
9.06308 99.9664 -89.6198 
-89.4216 98.4414 -92.115 
-52.4002 121.494 -54.3942 
-11.5556 134.553 -33.027 
-62.774 106.114 -79.5612 
-77.4195 100.503 -88.7416 
-11.9488 107.101 -77.9457 
-5.14775 132.59 -36.2391 
11.4619 99.1039 -91.0311 
-51.2804 114.92 -65.1518 
56.6028 101.835 -86.5626 
-18.6465 119.489 -57.6754 
-51.5745 114.64 -65.6105 
-9.2963 141.917 -20.9783 
-32.9708 98.5105 -92.002 
-61.884 98.5637 -91.915 
-20.1672 112.52 -69.0783 
-32.7765 130.848 -39.0894 
61.5216 98.8834 -91.3918 
1.48261 141.42 -21.7902 
58.9776 95.2692 -97.3056 
-56.559 101.559 -87.014 
-5.59731 134.453 -33.1906 
-47.8541 113.942 -66.7516 
-72.6282 99.1709 -90.9215 
26.9117 119.151 -58.228 
-25.6701 113.376 -67.6778 
24.9461 102.544 -85.4018 
-23.0198 97.6076 -93.4794 
22.4241 96.8603 -94.7022 
-13.6229 138.369 -26.7827 
-24.298 98.0034 -92.8318 
-21.2691 100.485 -88.7707 
-10.8919 106.391 -79.1073 
-31.9341 114.881 -65.2151 
-11.4638 110.435 -72.4903 
-24.8364 138.402 -26.7287 
-13.5902 111.246 -71.164 
7.34559 133.442 -34.8451 
26.5629 111.205 -71.2299 
-19.0843 140.461 -23.3595 
-59.1665 101.368 -87.3264 
49.8854 97.4551 -93.7289 
-55.768 115.76 -63.7777 
13.8446 111.136 -71.3429 
-13.0181 102.779 -85.0173 
-37.8443 115.837 -63.6507 
-30.6533 122.441 -52.8462 
-37.0809 126.205 -46.6866 
32.2497 120.91 -55.3504 
3.83335 125.557 -47.7471 
-64.3509 108.956 -74.9112 
92.122 96.0711 -95.9935 
-13.0944 99.2801 -90.7428 
59.528 102.803 -84.9784 
32.6662 103.325 -84.1247 
-11.3512 145.606 -14.9421 
-55.3812 119.902 -57.0007 
-43.1669 95.6369 -96.7039 
50.8539 95.346 -97.1799 
-2.7257 88.3435 -108.638 
-4.86318 79.1447 -123.689 
-29.3665 79.6028 -122.94 
8.97202 88.6685 -108.106 
67.2699 90.3389 -105.373 
-39.5535 86.0371 -112.412 
-15.5819 91.7428 -103.076 
18.1805 86.3461 -111.906 
8.38876 83.6618 -116.298 
-56.7204 79.679 -122.815 
51.4028 91.024 -104.252 
-5.49702 81.3747 -120.041 
-18.3669 83.393 -116.738 
24.2817 91.5279 -103.427 
10.2333 86.5906 -111.506 
7.93382 85.6165 -113.1 
-74.545 82.4683 -118.251 
34.2636 89.0507 -107.481 
-68.83 88.6219 -108.182 
69.2667 93.7101 -99.8567 
-82.9046 87.0505 -110.754 
34.5266 94.6162 -98.3742 
43.9637 94.6388 -98.3371 
-44.4244 80.0285 -122.243 
-64.9422 94.5975 -98.4047 
-66.8384 86.0074 -112.46 
-6.64864 81.1499 -120.409 
6.72012 80.7873 -121.002 
23.6339 88.2714 -108.756 
27.8589 76.2387 -128.444 
66.005 87.6729 -109.735 
42.3545 72.2831 -134.917 
-16.2417 71.0494 -136.936 
36.5308 71.0148 -136.992 
17.8163 74.1184 -131.914 
18.0888 72.9795 -133.777 
75.624 83.0289 -117.334 
66.3248 77.124 -126.996 
59.205 79.5461 -123.033 
70.1024 89.0242 -107.524 
33.5318 76.9369 -127.302 
57.8759 80.3794 -121.669 
40.5536 83.4627 -116.624 
5.18527 75.9429 -128.929 
-3.55999 74.1284 -131.898 
-19.4314 71.0837 -136.879 
58.9434 71.707 -135.885 
117.061 81.175 -128.191 
98.8484 83.2607 -120.822 
96.0344 85.4054 -116.156 
103.29 80.8103 -126.378 
96.7832 75.0171 -136.401 
125.039 79.6577 -132.588 
95.3777 84.3447 -118.089 
81.8466 83.623 -117.01 
104.248 75.2945 -137.23 
86.9998 84.3496 -116.547 
84.8603 73.0093 -138.106 
-5.18066 66.9564 -136.337 
4.76932 68.9311 -137.719 
92.6226 72.1199 -137.599 
89.5504 69.7744 -136.162 
136.54 75.8777 -137.176 
-11.7383 66.6815 -128.975 
-81.9314 68.2189 -107.789 
-49.6263 66.2379 -135.087 
-51.7183 66.6027 -130.06 
20.2977 66.5416 -130.903 
-52.7509 67.6265 -115.953 
-27.2268 67.566 -116.786 
-18.9637 66.7177 -128.476 
-39.6931 67.2335 -121.369 
17.2608 66.7537 -127.979 
-86.3658 68.1821 -108.296 
-30.7229 66.2071 -135.512 
-13.811 66.4647 -131.962 
-14.7017 66.3237 -133.905 
-48.7233 68.5968 -102.582 
-77.4114 68.8964 -98.4536 
-81.4033 69.3798 -91.7916 
-76.0051 69.0039 -96.9712 
-16.7617 67.5639 -116.814 
-67.801 69.0548 -96.2707 
3.36067 67.7015 -114.919 
-4.48652 67.7362 -114.44 
-24.0108 68.0833 -109.658 
-0.701111 68.4378 -104.773 
32.3678 69.6898 -87.5194 
-45.455 69.5789 -89.0481 
31.8567 68.3139 -106.48 
47.1366 69.691 -87.5028 
72.6493 68.8379 -99.2594 
-11.2719 68.1679 -108.492 
65.9045 68.2261 -107.69 
6.13855 69.3953 -91.5779 
45.1152 68.6911 -101.283 
-10.1143 69.398 -91.5406 
-43.5203 69.0808 -95.912 
0.0672965 68.9751 -97.3685 
-12.4427 68.3489 -105.998 
62.3932 67.8686 -112.616 
70.353 68.9124 -98.2324 
33.4202 69.525 -89.791 
63.0397 68.2882 -106.834 
53.8149 69.3164 -92.6657 
-25.7906 69.638 -88.2334 
-20.287 69.0146 -96.8239 
-49.421 69.5677 -89.2025 
54.4003 69.7302 -86.9627 
0.279491 69.521 -89.8463 
-35.6606 69.4196 -91.2433 
18.7496 69.8794 -84.9073 
69.9045 68.5244 -103.58 
-7.13605 69.4447 -90.8971 
82.2678 68.7841 -100.001 
84.3154 69.6743 -87.7334 
87.9676 69.3095 -92.7613 
71.2734 67.4481 -118.411 
93.4704 69.3245 -123.088 
100.709 69.8165 -114.687 
111.31 71.1702 -124.484 
66.6964 66.7665 -128.39 
125.159 72.835 -133.67 
79.0266 68.1985 -134.813 
125.214 72.7486 -130.459 
114.237 71.5823 -128.529 
65.828 66.8375 -133.937 
132.779 76.2312 -89.9464 
136.731 76.6189 -115.571 
137.446 74.6203 -98.3194 
113.741 86.8587 -98.6996 
119.733 84.0253 -101.353 
116.025 84.3803 -84.9148 
106.96 90.7924 -103.385 
129.721 79.7844 -110.882 
117.201 83.2009 -78.8435 
122.607 81.1409 -86.4936 
134.211 77.1965 -107.954 
123.199 81.6804 -95.4246 
138.014 76.78 -134.205 
135.828 73.3172 -128.87 
102.222 69.2748 -98.8841 
110.381 68.3515 -87.4531 
126.676 69.8075 -97.2268 
102.997 69.2115 -98.0392 
123.848 69.139 -91.4219 
120.669 71.3841 -114.503 
120.738 70.8708 -109.413 
131.773 67.0825 -68.8612 
122.538 68.0372 -80.9074 
-28.1944 137.301 -28.2477 
-64.2855 115.311 -59.5224 
-20.1351 142.212 -13.538 
-43.7286 127.836 -37.6705 
-52.1138 122.727 -48.9816 
-79.9934 105.741 -76.2244 
-29.4227 136.553 -28.4368 
-73.7433 109.549 61.0333 
-48.9901 124.631 34.3452 
-58.1455 119.052 -34.2789 
-73.2282 109.863 51.9627 
-58.5389 118.813 19.6665 
-68.4265 112.788 2.91252 
-89.0851 100.201 46.3224 
-52.0381 122.773 31.2177 
-64.2645 115.324 15.2513 
-73.0557 109.968 25.4151 
-32.7 134.556 29.909 
-96.8627 95.4623 29.3821 
-78.6775 106.542 -68.5055 
-35.3903 132.917 23.3813 
-79.3087 106.158 -56.6154 
-69.0018 112.438 56.894 
-77.6094 107.193 63.195 
-83.6282 103.526 -5.56551 
-74.1339 109.311 7.33105 
-44.2754 127.503 33.6964 
-46.6747 126.041 1.15398 
-88.1992 100.741 -78.0103 
-66.6252 113.886 -38.6846 
-72.7706 110.141 41.6776 
-50.6639 123.611 13.2413 
-96.4342 95.7234 -39.8955 
-94.1211 97.1328 -9.41868 
-71.0823 111.17 55.4157 
-90.5435 99.3126 72.3454 
-76.4675 107.889 9.77188 
-84.9799 102.702 34.0712 
-77.6825 107.149 -66.7033 
-68.8267 112.544 67.2471 
-79.1165 106.275 53.3023 
-42.5772 128.538 38.3825 
-33.2163 134.241 -4.38413 
-83.5035 103.602 22.6288 
-91.942 98.4605 -61.0746 
-44.6237 127.291 17.3995 
-81.1898 105.012 -63.1123 
-56.9447 119.784 46.662 
-90.1389 99.5591 59.9082 
-77.7061 107.134 21.4581 
-71.9858 110.62 63.0612 
-22.1326 140.994 9.46917 
-65.7241 114.435 -24.2877 
-67.0241 113.643 24.9024 
-27.5425 137.698 16.8703 
-71.9805 110.623 -37.7505 
-60.6815 117.507 -30.6811 
-95.4255 96.338 57.2999 
-73.3557 109.785 17.5915 
-56.3341 120.156 39.4174 
-73.9809 109.404 -44.4282 
-31.1432 135.504 31.1935 
-91.4078 98.7859 28.7181 
-23.5225 140.148 16.5114 
-76.096 108.115 42.496 
-66.3752 114.038 -18.7387 
-67.3782 113.427 22.6066 
-68.2797 112.878 -55.5287 
-86.4117 101.83 -83.2949 
-127.086 77.0477 59.6891 
-131.327 74.4635 33.9925 
-132.335 73.8495 41.028 
-100.223 93.415 92.3793 
-131.67 74.2546 55.2089 
-121.007 80.7515 -3.4073 
-97.4214 95.1219 31.6942 
-102.749 91.8759 -29.9923 
-106.186 89.7819 35.9224 
-121.995 80.1498 57.7182 
-106.75 89.4384 23.8174 
-103.974 91.1297 -43.1462 
-110.702 87.0304 -20.4272 
-117.907 82.6406 25.5717 
-102.181 92.2219 9.22937 
-107.182 89.1746 30.8317 
-108.731 88.2313 -3.34271 
-101.439 92.6739 48.5741 
-119.015 81.9652 73.0079 
-100.153 93.4577 74.1252 
-103.058 91.6873 13.6949 
-126.792 77.2265 29.5147 
-109.551 87.7314 74.4874 
-120.09 81.31 66.9295 
-114.036 84.999 32.1978 
-112.98 85.6422 70.2897 
-102.556 91.9934 -31.6498 
-130.537 74.9448 31.7054 
-107.945 88.7099 -5.45451 
-104.655 90.7144 -64.1721 
-132.896 73.5078 -39.7847 
-131.064 74.6239 -10.779 
-124.247 78.7777 -10.7107 
-126.228 77.5704 -29.5828 
-133.433 73.1804 3.07026 
-134.423 72.5771 -34.7109 
-130.812 74.7776 12.9354 
-133.343 73.2355 13.2343 
-126.033 77.689 -55.4942 
-117.962 82.607 -45.8359 
-131.572 74.3142 10.6473 
-113.96 85.0453 -45.307 
-130.947 74.695 -21.9553 
-136.793 71.1331 -57.4506 
-136.87 71.0866 -9.05137 
-135.344 72.0159 -42.0351 
-136.9 71.0681 7.24861 
-135.386 77.0109 -112.395 
-100.882 93.6189 -100.191 
-116.671 83.599 -80.1716 
-138.083 73.084 -85.5361 
-106.511 91.1702 -104.936 
-111.853 86.3491 -83.0261 
-133.687 73.3924 -64.8546 
-137.31 74.7675 -99.1374 
-130.738 77.9611 -97.1318 
-124.855 82.7571 -115.835 
-131.008 75.1472 -68.8329 
-131.076 74.8819 -66.3971 
-136.249 66.8293 8.09506 
-137.398 68.473 -19.1354 
-137.611 68.7762 13.4044 
-138.311 69.7773 -25.1311 
-138.251 74.3515 -105.713 
-137.768 73.8691 -108.403 
-136.154 70.0151 -92.0285 
-130.117 66.5986 28.3654 
-113.278 67.8206 75.2095 
-120.8 67.2747 43.9624 
-122.531 67.1491 2.52492 
-111.433 67.9545 77.904 
-114.989 67.6964 49.0569 
-126.37 66.8705 41.609 
-125.732 66.9168 54.4881 
-115.965 67.6256 46.6524 
-128.824 66.6924 -16.3428 
-130.92 66.5403 -10.5197 
-129.758 66.6246 52.663 
-133.232 66.3725 8.70495 
-122.454 67.1547 32.0155 
-117.647 67.5035 31.8495 
-100.205 68.7693 83.6888 
-95.0436 69.1438 91.3412 
-99.524 68.8187 71.49 
-83.2527 69.9995 83.1044 
-117.35 67.5251 10.4664 
-106.238 68.3315 41.9599 
-91.7338 69.384 80.3672 
-109.745 68.077 28.6368 
-105.433 68.3899 24.371 
-131.185 66.5211 -57.743 
-104.553 68.4538 -55.1987 
-120.845 67.2714 -55.97 
-94.304 69.1975 -12.0483 
-119.466 67.3715 -42.8658 
-96.0426 69.0713 -46.9118 
-84.9365 69.8773 -69.6606 
-113.949 67.7719 -59.3707 
-112.358 67.8873 -36.8527 
-94.7443 69.1655 19.0232 
-105.249 68.4032 -69.9174 
-93.9473 69.2234 -26.4642 
-85.5204 69.8349 -4.83316 
-104.382 68.4662 15.3903 
-118.983 67.4066 -65.8421 
-83.1124 70.0097 -78.8368 
-120.694 67.2824 -25.3519 
-83.9196 69.9511 -64.7614 
-85.7297 69.8197 -51.5421 
-85.8502 69.811 54.8995 
-84.3531 69.9196 65.4544 
-114.995 67.696 -29.3277 
-109.924 68.064 1.07672 
-114.376 67.7409 -25.87 
-92.5145 69.3274 -9.06604 
-116.08 67.6172 -66.2176 
-97.2971 68.9803 -38.4123 
-92.5121 69.3275 -2.03689 
-96.9325 69.0068 -76.1716 
-97.1498 68.991 -75.9537 
-119.52 67.3676 -72.7413 
-134.967 69.7767 -94.5753 
-123.266 69.1696 -91.8893 
-124.311 69.7135 -96.9672 
-106.003 69.0153 -95.2504 
-130.107 73.0338 -128.131 
-132.243 69.1528 -89.1829 
-101.329 69.2466 -98.8579 
-132.975 73.2068 -129.028 
-128.706 68.6688 -85.4018 
-87.2947 74.724 -135.232 
-98.9122 88.5692 -110.558 
-102.368 90.1537 -108.124 
-80.3223 80.5755 -122.63 
-108.794 82.4411 -124.228 
-83.8975 86.4196 -111.972 
-86.7441 75.8144 -133.021 
-97.3636 74.2444 -138.003 
-80.4982 82.4191 -119.094 
-76.2958 81.256 -120.576 
-73.8637 74.4744 -133.258 
-120.382 81.9298 -127.338 
-89.3159 72.753 -138.176 
-93.3079 69.8245 -135.898 
-71.5596 68.3247 -136.356 
-124.341 72.7434 -133.361 
-79.8006 67.9812 -124.494 
-97.2653 69.5323 -116.933 
-70.7088 67.1553 -127.783 
-74.4257 67.3347 -120.916 
-96.587 69.1616 -106.387 
-93.3496 69.3414 -124.102 
-89.8504 68.7733 -116.633 
-124.312 72.5931 -128.218 
-66.1468 74.5806 131.64 
-77.9674 76.7197 129.663 
-124.219 81.6858 128.512 
-89.5039 82.3147 120.943 
-109.589 83.316 122.68 
-98.9801 93.3536 101.31 
-94.2205 88.8062 109.241 
-105.686 75.3266 137.431 
-124.462 82.2709 127.424 
-126.407 82.5263 127.286 
-102.929 83.553 121.003 
-72.2649 74.9861 131.975 
-103.08 92.5234 100.568 
-112.832 87.8572 104.312 
-116.944 85.2221 98.8267 
-136.578 72.0622 66.5292 
-137.384 72.2508 72.9154 
-135.105 78.9561 131.443 
-117.204 84.5315 92.9352 
-114.755 85.7911 92.9268 
-125.777 78.3052 73.7557 
-127.535 82.3858 126.499 
-135.353 74.1347 81.7816 
-127.552 79.768 98.8996 
-81.302 72.259 138.392 
-133.458 74.6451 136.483 
-138.478 75.567 114.82 
-135.847 67.5093 71.2088 
-94.132 69.1384 114.25 
-87.614 68.7831 124.879 
-97.8636 70.0769 133.828 
-71.6002 67.3181 130.318 
-95.3642 69.8074 133.254 
-125.565 72.8745 133.611 
-99.9293 70.203 130.933 
-65.2355 66.7862 134.24 
-97.1527 69.8797 129.456 
-122.646 67.3915 74.4966 
-133.438 67.6092 73.5937 
-122.419 68.3583 84.1132 
-128.416 72.6331 124.651 
-124.009 69.9748 99.6344 
-125.63 68.7323 86.8998 
-117.62 70.7402 109.004 
-133.712 67.051 68.0012 
-127.823 67.9951 78.995 
-3.46404 147.946 1.69326 
2.10536 147.946 3.19659 
0.835043 147.946 -10.483 
53.7043 33.4825 100.058 
49.4144 16.9065 100.058 
45.6327 33.9587 100.058 
57.6387 30.0163 100.058 
10.4387 20.9467 100.058 
-8.57315 15.9897 100.058 
-42.1381 23.1157 100.058 
-49.1506 19.2155 100.058 
-53.1575 15.2279 100.058 
-55.5435 33.5317 100.058 
-58.7907 22.5182 100.058 
43.3465 36.4499 -100.058 
44.0914 24.4632 -100.058 
60.286 33.7632 -100.058 
3.98305 21.7881 -100.058 
4.5363 36.4289 -100.058 
-8.36599 37.9197 -100.058 
-0.334093 34.8771 -100.058 
-50.9067 36.039 -100.058 
-50.7519 34.6769 -100.058 
-41.9439 21.6926 -100.058 
-66.0756 34.801 -100.058 
-65.0283 27.4708 -100.058 
-57.8009 24.0331 -100.058 
-69.2954 16.1372 -100.058 
-82.5382 21.1093 42.09 
-82.5382 18.5546 54.2195 
-82.5382 15.7987 58.2138 
-82.5382 36.2703 -48.2803 
-82.5382 29.5095 -50.1394 
-82.5382 19.4975 -42.894 
-82.5382 16.4552 -69.2169 
-82.5382 25.3757 -60.7016 
-82.5382 30.6473 -67.0758 
-82.2228 33.8543 -5.94706 
-82.2228 14.1699 -12.1403 
-83.2429 47.584 -22.7713 
-82.576 -10.9013 -22.2358 
-83.4325 -10.9013 -0.397112 
-81.73 30.6055 -26.3188 
-82.5109 19.1159 -0.15573 
-81.4861 29.0783 -2.1024 
-84.0079 6.46259 -0.718475 
-81.4578 38.8533 -1.8215 
-81.4578 4.04079 -0.862962 
-84.0079 21.8405 -26.1509 
-84.0079 -8.69829 -24.778 
-84.0079 -9.65441 -11.0744 
-82.4778 36.5257 -14.7351 
-82.4778 47.765 -3.73774 
-82.4778 18.3176 -2.06425 
-82.4778 9.29162 -9.29916 
-82.4778 31.3643 -5.58254 
-82.4778 -5.16916 -18.6184 
-82.4778 -2.56428 -7.63766 
-82.4778 -6.73752 -12.0198 
-82.9879 37.5536 -13.1224 
-82.9879 46.5021 -10.5726 
-82.9879 19.859 -21.6827 
-82.9879 30.424 -22.6218 
-82.9879 33.2059 -4.55967 
-82.9879 -0.672386 -8.91055 
-82.9879 5.24895 -14.2894 
-82.9879 -2.17421 -17.8574 
-82.4778 48.8173 -2.59628 
-82.9879 49.8468 -18.9113 
-82.2669 -5.5071 4.84531 
-83.2429 -5.37237 2.77007 
-83.2429 34.085 22.3969 
-83.2429 28.0335 4.75184 
-82.2228 9.95228 15.5285 
-82.3835 -10.9013 16.5703 
-82.5496 49.7188 26.3188 
-83.8688 50.1404 0.15573 
-81.6596 19.1835 0.15573 
-84.0079 22.9664 1.19212 
-84.0079 15.7401 0.638326 
-84.0079 52.2743 24.2663 
-81.4578 52.6515 4.27968 
-84.0079 5.35501 24.4284 
-84.0079 46.629 24.9728 
-82.7068 23.2424 1.65699 
-82.4778 46.9853 5.10764 
-82.4778 38.389 20.6437 
-82.4778 5.17626 10.7194 
-82.4778 -0.804749 21.5059 
-82.4778 14.1339 23.6084 
-82.4778 26.4751 18.615 
-82.4778 19.9054 3.30304 
-82.4778 4.138 8.23089 
-82.9879 43.6365 23.4877 
-82.9879 43.705 3.52737 
-82.9879 22.792 5.25821 
-82.9879 9.86684 12.914 
-82.9879 -9.40378 15.998 
-82.9879 10.6954 24.8116 
-82.9879 -1.96897 21.6915 
-82.9879 28.8101 9.01346 
-82.4778 52.1075 21.1677 
-82.9879 51.5488 10.3313 
-82.9879 49.4835 6.56608 
83.2429 33.1037 -15.7953 
82.2228 28.8789 -19.8461 
83.2429 28.1819 -24.861 
83.2429 47.7631 -5.06792 
82.2228 9.99467 -21.0332 
83.0259 -8.95461 -12.9221 
82.3178 49.3236 -26.3188 
81.8138 51.8479 -24.3721 
82.4164 -1.98432 -24.3721 
83.0563 52.1704 -11.6992 
82.4459 52.1704 -16.5679 
81.4578 39.0227 -0.770853 
81.4578 22.5666 -25.6228 
82.4778 39.5868 -5.10505 
82.4778 35.0471 -21.0754 
82.4778 21.3778 -19.8774 
82.4778 -4.41291 -21.8885 
82.4778 7.53316 -15.3258 
82.4778 32.0267 -3.35523 
82.4778 32.6516 -16.4719 
82.4778 22.9731 -13.5353 
82.9879 42.3069 -24.5056 
82.9879 34.9581 -18.7047 
82.9879 25.0096 -2.89875 
82.9879 11.2757 -3.70701 
82.9879 7.86579 -11.366 
82.9879 24.094 -7.42617 
82.9879 19.1839 -15.8524 
82.9879 -1.60258 -24.3 
82.4778 50.2618 -9.28838 
82.4778 52.8368 -23.2109 
82.9879 52.8258 -13.9716 
82.5743 53.1709 -6.52504 
82.2228 27.8882 20.7419 
82.5413 29.1629 2.41953 
82.7551 28.595 1.52229 
83.2429 47.5232 18.3541 
82.4717 0.238768 26.3188 
81.6242 7.60301 24.3721 
82.9216 33.0333 24.3721 
83.3587 41.471 2.1024 
81.4578 46.5234 1.86351 
81.4578 53.4843 15.8363 
84.0079 -10.4489 6.16285 
82.4778 35.5636 17.4493 
82.4778 47.9931 9.10413 
82.4778 19.3067 16.7217 
82.4778 28.9051 17.4705 
82.4778 15.9604 8.52197 
82.4778 31.2911 14.6703 
82.4778 -0.821411 11.2227 
82.4778 -3.4363 14.3411 
82.4778 -6.02676 5.52414 
82.9879 38.9471 12.0527 
82.9879 43.9979 10.8943 
82.9879 30.3424 7.13389 
82.9879 19.1419 19.7535 
82.9879 15.2695 23.2458 
82.9879 -5.2153 19.9037 
82.9879 6.42673 9.12668 
82.9879 6.22163 9.93888 
82.9879 48.6902 8.10475 
47.1091 32.2331 -100.862 
42.8264 29.0051 -100.784 
52.092 25.6623 -101.031 
64.2396 37.5061 -100.88 
56.8423 19.2574 -100.24 
66.5756 25.6701 -100.969 
61.8753 31.0613 -99.8634 
59.6744 44.783 -101.114 
58.6861 43.0886 -102.15 
66.8732 36.3175 -102.199 
-83.3754 40.9716 -49.445 
-82.3435 33.2353 -47.1981 
-83.4457 17.7506 -53.9224 
-83.3969 32.0493 -61.5143 
-82.5466 33.937 -59.5676 
-83.1247 20.6929 -59.5676 
-82.3838 40.5016 -56.8423 
-83.4844 16.3571 -56.8423 
-83.5115 35.7151 -61.6097 
-82.9647 45.229 -50.7564 
-82.7328 31.6864 -41.497 
-84.6795 22.3643 -68.8603 
-82.7328 20.671 -67.7831 
-84.6795 28.8495 -67.8526 
9.34395 17.8879 100.321 
8.62555 22.9705 100.504 
-9.34395 39.1361 100.493 
-7.00797 21.0204 100.716 
-7.00797 27.0785 100.926 
-2.6964 17.4049 101.031 
-9.67667 39.6975 99.8634 
15.3586 15.2251 102.199 
5.50017 44.1251 100.253 
-8.44574 40.2369 101.037 
-44.7731 29.1364 -100.605 
-47.4984 37.093 -100.178 
-49.445 15.3451 -100.704 
-49.8344 24.2565 -99.9203 
-52.1704 25.5747 -100.191 
-42.8264 30.2468 -100.841 
4.67196 40.7016 -100.007 
2.33598 24.9034 -100.776 
-13.0197 23.2329 -100.642 
8.463 23.1852 -100.253 
0.58401 22.8465 -100.183 
-9.34395 24.1482 -100.302 
-12.0654 28.9935 -99.8634 
6.62845 41.7588 -100.375 
16.2265 15.9012 -100.253 
13.4659 26.4142 -100.253 
-15.4339 15.9269 -102.199 
49.8344 42.911 100.618 
51.781 34.1617 100.341 
51.8885 16.7727 99.8634 
49.4736 18.1337 101.031 
55.0903 34.6401 100.752 
59.5676 24.0757 100.834 
40.1593 25.3696 100.546 
44.3952 38.6811 102.199 
65.9252 36.3455 100.253 
58.1997 44.2675 100.253 
-83.1605 30.5972 44.7731 
-82.664 24.2498 47.4984 
-82.3435 16.266 42.7117 
-83.0716 38.5438 47.3976 
-82.9113 36.492 53.9224 
-82.3435 34.4001 55.0557 
-83.2326 26.6386 66.5756 
-84.1368 44.5282 48.7438 
-83.1896 21.7355 41.7306 
-84.6795 17.3798 40.1393 
-84.6795 40.5466 43.8976 
-83.8005 46.0784 54.8843 
-82.8042 36.725 67.8753 
-83.6295 31.8579 68.5222 
-83.3846 34.555 68.5222 
-82.7328 16.4267 70.2148 
-84.6795 35.4495 66.607 
2.72532 28.4213 -101.022 
11.6799 27.7957 -100.359 
4.97276 38.8787 -99.8634 
0.162667 36.0718 -101.031 
-7.39728 21.4661 -100.042 
-11.828 29.3493 -99.8634 
-11.7526 28.7335 -99.8634 
-14.0159 32.9804 -100.437 
-13.9856 16.8728 -100.562 
-10.9214 40.2811 -102.199 
-49.445 39.4443 99.9231 
-49.8344 40.0696 100.921 
-52.1704 40.7734 100.691 
-61.9036 23.4981 99.9908 
-66.329 22.9775 101.031 
-41.5928 37.6373 100.624 
-42.3616 30.2276 100.654 
-40.4857 16.5489 100.253 
-45.2352 40.6316 102.199 
-66.4127 35.2965 101.587 
-66.6034 33.1726 102.199 
0.58401 40.7158 100.593 
-0.229077 42.554 99.8634 
-7.00797 28.418 100.472 
-2.72532 34.2509 100.416 
-2.33598 39.9434 100.947 
-7.32092 15.8259 99.8634 
-14.2817 23.3937 101.277 
124.601 -45.8675 -0.97332 
165.872 -49.1791 -0.97332 
122.08 -44.8703 0.97332 
171.176 -48.1586 -0.339734 
108.982 -50.4992 127.361 
109.986 -46.3317 106.079 
109.832 -48.1695 134.499 
108.039 -49.0416 124.078 
108.039 -47.5439 93.7687 
109.476 -48.2484 137.481 
108.352 -50.5656 165.029 
109.986 -46.8725 134.562 
109.405 -47.4351 162.646 
108.039 -48.5027 160.417 
108.039 -45.0624 128.151 
93.9518 -46.3789 115.255 
94.4128 -43.0409 109.665 
94.4128 -48.6196 154.124 
92.4661 -47.1412 140.125 
93.9029 -47.8378 95.7216 
92.9937 -49.1338 111.129 
94.4128 -46.0573 93.4508 
78.8395 -46.5041 120.877 
76.8929 -47.5173 153.616 
76.8929 -43.9994 105.423 
78.5262 -51.0762 134.222 
78.8395 -51.0106 136.381 
78.2356 -47.2822 123.95 
76.8929 -47.8464 121.346 
61.3456 -46.8139 120.427 
63.2663 -45.358 115.224 
