ply
format ascii 1.0
comment Author: CloudCompare (TELECOM PARISTECH/EDF R&D)
obj_info Generated by CloudCompare!
element vertex 1822
property float x
property float y
property float z
end_header
-83.7328 251.426 -85.7916 
-115.408 250.478 -87.8249 
32.7936 251.176 -86.3265 
88.9868 251.631 -85.3511 
-62.4504 251.709 -85.1844 
-115.362 251.414 -85.816 
-93.5517 250.933 -86.8476 
-12.9784 251.021 -86.6587 
-26.0779 251.406 -85.8332 
0.484222 251.315 -86.0302 
-58.3687 251.444 -85.7529 
-117.359 251.013 -86.6765 
-153.773 251.313 -86.0335 
-116.934 251.567 -85.4881 
-126.329 251.148 -86.388 
-154.291 250.31 -88.1848 
-153.421 250.513 -87.7486 
-21.7674 251.667 -85.2747 
-53.7433 251.801 -84.9863 
105.936 251.625 -85.364 
-122.163 251.89 -84.7967 
-51.5918 250.743 -87.2554 
-125.349 251.577 -85.4672 
12.9643 251.423 -85.7978 
-57.9478 251.445 -85.7511 
-143.928 251.655 -85.2993 
-37.7484 250.766 -87.2057 
-113.546 251.867 -84.8451 
-16.3868 251.476 -85.6834 
-120.044 250.574 -87.619 
-53.6846 250.85 -87.0271 
-106.731 251.088 -86.5165 
-11.1566 251.802 -84.9853 
-23.2587 251.506 -85.6196 
-107.375 251.048 -86.6018 
-46.2373 251.216 -86.2423 
38.6587 251.879 -84.8194 
0.196289 251.583 -85.4548 
88.9153 251.509 -85.6133 
-141.1 250.358 -88.0817 
-70.8013 251.502 -85.6272 
9.73196 251.725 -85.1507 
-60.3944 251.125 -84.3322 
29.51 251.633 -84.5691 
116.834 251.614 -84.5605 
150.958 249.304 -83.483 
32.3009 249.163 -83.4175 
149.003 247.631 -82.7029 
-142.848 251.744 -84.621 
-49.528 250.406 -83.9971 
82.9646 249.477 -83.5639 
74.9669 249.639 -83.6393 
149.008 247.575 -82.6769 
-92.7054 251.585 -84.5468 
75.9112 250.28 -83.9384 
144.643 247.984 -82.8678 
-80.8025 251.022 -84.2843 
27.0773 251.292 -84.4103 
114.106 251.92 -84.7029 
69.2634 250.372 -83.9811 
-65.9884 250.639 -84.1058 
20.176 251.751 -84.6243 
-10.5409 250.578 -84.0771 
119.122 248.172 -82.9552 
89.8106 250.022 -83.818 
151.561 251.644 -84.5743 
-56.925 251.617 -84.5615 
62.4776 249.015 -83.3484 
130.735 248.44 -83.0801 
-115.175 251.566 -84.5379 
91.5339 248.893 -83.2914 
117.421 248.049 -82.8979 
12.8392 251.405 -84.4626 
-66.6674 251.535 -84.5234 
-5.14792 250.5 -84.0408 
113.79 248.56 -83.1362 
158.889 250.944 -84.248 
20.924 251.101 -84.3211 
63.2697 248.933 -83.3103 
56.353 250.667 -84.1189 
-44.6343 251.243 -84.3872 
50.9965 250.314 -83.954 
36.4438 249.155 -83.4137 
102.239 250.161 -83.8829 
111.989 248.051 -82.8989 
155.234 251.324 -84.4249 
161.958 248.78 -83.2386 
47.435 250.7 -84.1342 
122.187 249.143 -83.4082 
-1.64313 251.343 -84.4341 
111.748 247.449 -82.618 
64.5784 248.006 -82.8779 
111.768 247.37 -82.5812 
-20.5005 248.262 -82.997 
76.4628 247.817 -82.7897 
-129.942 249.059 -83.3689 
-151.888 251.426 -84.4724 
-101.388 248.557 -83.1347 
-62.2659 247.443 -82.6153 
20.2892 248.966 -83.3254 
-10.9539 247.565 -82.6723 
-78.9638 250.618 -84.096 
-161.572 251.922 -84.7041 
-99.089 247.243 -82.522 
-100.559 247.192 -82.4982 
-48.8494 249.392 -83.5243 
10.7328 248.989 -83.3364 
-37.2297 247.568 -82.6736 
-92.7569 249.466 -83.5587 
-106.675 248.675 -83.1899 
-153.656 250.184 -83.8936 
27.3118 248.663 -83.1841 
-55.6468 249.372 -83.5149 
78.8457 247.895 -82.826 
51.642 247.9 -82.8284 
-154.697 247.643 -82.7085 
-48.4119 249.366 -83.5121 
-30.9419 247.531 -82.6561 
-71.1428 247.509 -82.6461 
-115.551 249.588 -83.6155 
28.7445 247.588 -82.6828 
-8.80821 249.125 -83.3994 
-1.0049 247.979 -82.8653 
57.6472 247.219 -82.5106 
-132.815 250.939 -84.2457 
-1.65459 247.856 -82.8078 
-124.875 248.959 -83.3223 
34.048 248.515 -83.1153 
44.8531 248.726 -83.2136 
-128.378 248.035 -82.8914 
-118.464 247.185 -82.4951 
-138.347 249.984 -83.8 
37.1053 248.458 -83.0888 
3.29141 248.173 -82.9556 
-35.4566 249.635 -83.6376 
-117.154 248.309 -83.0192 
-157.022 251.245 -84.3883 
16.19 247.579 -82.6789 
150.699 246.822 -83.2451 
-45.6414 246.84 -83.2056 
127.637 245.663 -85.7299 
-129.577 247.019 -82.8213 
51.3503 246.96 -82.9493 
155.885 245.835 -85.3611 
149.94 246.631 -83.6543 
-39.2301 246.527 -83.8763 
40.4464 246.481 -83.9765 
44.2595 246.897 -83.083 
85.4341 247.128 -82.5884 
129.638 245.912 -85.1954 
76.0716 246.526 -83.8783 
-24.195 246.674 -83.5618 
-101.256 246.939 -82.9937 
103.584 246.229 -84.5155 
61.4996 246.308 -84.3466 
48.7123 245.994 -85.0196 
79.1161 247.038 -82.7805 
142.788 245.687 -85.6796 
106.222 245.754 -85.5339 
25.9741 246.901 -83.0744 
-21.4003 246.997 -82.8684 
161.472 246.871 -83.1398 
111.945 246.134 -84.7209 
40.7471 246.189 -84.6021 
-84.6026 246.886 -83.1074 
160.276 245.307 -86.4937 
-63.6266 246.917 -83.0404 
68.7075 247.052 -82.7511 
153.816 246.785 -83.3232 
156.578 246.347 -84.2635 
121.138 246.855 -83.1742 
0.355301 246.558 -83.8116 
124.034 245.839 -85.3536 
86.6933 246.817 -83.2544 
-8.59782 246.331 -84.2967 
11.6723 247.165 -82.5094 
124.129 246.955 -82.9585 
140.103 246.036 -84.9299 
78.53 246.91 -83.0568 
-36.2896 246.362 -84.2315 
-139.852 246.06 -84.8795 
-81.3684 245.699 -85.6524 
-36.4886 245.784 -85.4711 
9.97437 245.797 -85.4429 
-44.3562 246.157 -84.6707 
-138.065 245.923 -85.1729 
-5.36737 245.64 -85.7797 
-107.223 246.154 -84.6763 
91.756 245.399 -86.2972 
108.753 245.451 -86.1855 
-20.9347 245.621 -85.8203 
-88.4784 246.289 -84.3885 
-122.422 245.889 -85.2454 
22.111 245.947 -85.122 
-34.3779 246.17 -84.6421 
-59.421 245.556 -85.9598 
1.60757 245.559 -85.9524 
56.859 245.286 -86.5393 
-99.3485 245.367 -86.365 
-11.7335 245.728 -85.5902 
62.2447 245.326 -86.4521 
138.672 245.36 -86.3794 
-54.8175 245.739 -85.5674 
-73.0527 245.281 -86.5483 
-116.386 245.765 -85.5113 
-53.2904 245.93 -85.1585 
-159.619 246.24 -84.4922 
-132.28 246.756 -83.3852 
-61.2966 246.484 -83.9701 
-83.5974 245.339 -86.4257 
-102.882 245.256 -86.602 
-143.005 246.296 -84.3724 
13.7687 245.912 -85.1961 
-57.8354 245.349 -86.4027 
-64.2601 246.027 -84.9488 
-65.2391 245.786 -85.4673 
-39.6913 246.391 -84.1682 
-59.6239 245.91 -85.1997 
-45.9445 245.523 -86.0305 
-153.483 246.829 -83.2287 
108.476 245.322 -86.4623 
124.066 248.4 -20.9499 
123.361 248.4 -24.7206 
121.61 248.4 -28.2998 
125.172 248.4 -5.57766 
123.809 248.4 -14.7357 
123.395 248.4 -6.18011 
122.13 248.4 -51.8273 
123.787 248.4 -35.8955 
122.082 248.4 -45.6206 
121.569 248.4 -51.7488 
124.573 248.4 -39.2221 
125.687 248.4 -20.2621 
124.07 248.4 -47.9397 
121.852 278.064 -5.64125 
122.648 259.173 -44.5909 
121.982 274.407 -13.1811 
121.829 262.326 -38.0887 
122.867 257.975 -47.0609 
122.14 263.052 -36.5916 
124.243 256.52 -50.0609 
124.362 267.184 -28.0724 
123.769 276.808 -8.23002 
125.11 279.41 -2.86493 
124.014 276.551 -8.76133 
125.759 258.758 -45.445 
125.239 264.045 -34.5453 
125.361 262.764 -37.1871 
122.654 252.179 -52.92 
124.349 253.327 -52.92 
125.786 273.83 -1.59821 
125.786 259.336 -30.3095 
125.786 269.104 -2.23196 
125.786 271.935 -9.05336 
125.786 255.47 -28.7134 
125.786 251.344 -8.7934 
125.786 256.041 -2.07883 
125.786 260.307 -27.9619 
125.786 261.138 -12.8224 
125.786 251.184 -1.19367 
125.786 264.467 -4.32635 
125.786 264.442 -10.1912 
125.786 255.859 -43.1095 
125.786 256.441 -45.945 
125.786 255.236 -9.04438 
125.786 268.472 -16.6147 
125.786 258.816 -12.5076 
125.786 259.145 -7.96448 
125.786 262.478 -1.01605 
125.786 253.054 -30.4286 
125.786 269.234 -6.80123 
125.786 250.294 -1.6213 
125.786 267.712 -12.5628 
125.786 262.815 -13.2964 
125.786 253.433 -7.37801 
125.786 256.102 -13.3636 
125.786 265.193 -5.15844 
125.786 261.535 -15.1384 
125.786 272.909 -15.664 
125.786 256.741 -29.3783 
125.786 260.21 -23.0494 
125.786 267.959 -4.41961 
125.786 253.468 -29.637 
125.786 270.175 -14.5175 
125.786 261.245 -2.25498 
125.786 255.041 -15.7669 
125.786 276.452 -2.00363 
125.786 258.315 -39.177 
125.786 265.721 -7.06054 
125.786 253.323 -10.229 
125.786 251.016 -3.40797 
125.786 254.734 -13.8493 
125.786 257.402 -40.4244 
125.786 276.988 -5.13986 
125.786 252.804 -29.204 
125.786 254.983 -5.41588 
125.786 257.163 -10.0709 
125.786 276.813 -4.06802 
125.786 248.447 -6.49628 
125.786 253.711 -45.276 
125.786 250.662 -40.4176 
125.786 250.597 -24.5753 
125.786 252.16 -49.5665 
125.786 248.43 -25.2615 
125.786 253.162 -46.3676 
125.786 249.627 -19.8695 
125.786 251.783 -35.148 
125.786 249.18 -44.3994 
121.466 248.564 -23.8303 
121.466 252.389 -33.7606 
121.466 252.297 -42.63 
121.466 250.332 -25.6547 
121.466 250.253 -28.59 
121.466 250.422 -16.8634 
121.466 250.423 -32.6499 
121.466 252.271 -43.097 
121.466 253.188 -37.9639 
121.466 250.327 -20.6936 
121.466 255.513 -14.3523 
121.466 254.262 -22.437 
121.466 275.37 -5.93443 
121.466 268.906 -9.65363 
121.466 254.505 -6.05654 
121.466 271.741 -6.43293 
121.466 253.707 -5.3653 
121.466 258.54 -0.669788 
121.466 270.744 -18.1561 
121.466 258.901 -19.0194 
121.466 255.148 -26.8198 
121.466 265.842 -20.6005 
121.466 254.543 -38.1193 
121.466 273.21 -11.9286 
121.466 258.104 -38.7339 
121.466 258.631 -41.5424 
121.466 256.033 -46.7395 
121.466 272.267 -3.89793 
121.466 255.213 -51.3039 
121.466 273.858 -11.4055 
121.466 258.805 -39.2431 
121.466 269.512 -9.71671 
121.466 251.448 -21.7168 
121.466 254.452 -27.7425 
121.466 255.687 -27.2076 
121.466 258.106 -23.4364 
121.466 274.648 -1.65785 
121.466 267.033 -0.153221 
121.466 264.593 -2.83974 
121.466 266.128 -15.1211 
121.466 272.512 -6.12297 
121.466 256.009 -48.9721 
121.466 255.15 -5.73296 
121.466 260.354 -42.0329 
121.466 258.008 -16.6525 
121.466 256.588 -32.2632 
121.466 260.387 -21.785 
121.466 269.136 -11.457 
121.466 253.017 -22.274 
121.466 264.909 -31.6825 
121.466 256.316 -15.6479 
121.466 254.912 -42.0446 
121.466 253.327 -32.1898 
121.466 255.083 -13.0356 
121.466 254.903 -26.3609 
121.466 274.96 -2.40535 
121.466 256.134 -7.45233 
121.466 260.189 -3.5223 
121.466 263.734 -2.18702 
140.4 251.009 -41.3964 
140.4 244.686 -44.9187 
140.4 245.573 -47.1081 
140.4 244.536 -42.3671 
140.4 245.702 -46.0884 
140.4 247.072 -44.6018 
140.4 246.411 -51.5582 
140.4 251.911 -52.2854 
140.4 249.917 -47.0489 
140.4 247.765 -49.2692 
140.4 253.036 -55.6659 
162 269.174 -42.5479 
162 270.175 -43.9568 
-122.463 248.4 -42.2539 
-123.807 248.4 -45.829 
-123.814 248.4 -26.782 
-124.465 248.4 -19.4672 
-124.396 248.4 -38.9439 
-125.63 248.4 -39.1951 
-124.65 248.4 -7.20947 
-123.512 248.4 -23.6361 
-122.139 248.4 -1.07158 
-121.806 248.4 -9.76606 
-123.17 248.4 -9.29245 
-121.628 248.4 -32.5006 
-125.263 270.186 -21.8839 
-125.335 280.637 -0.336171 
-125.145 268.496 -25.3689 
-124.568 271.922 -18.3049 
-125.211 276.803 -8.24072 
-123.543 279.399 -2.88775 
-122.548 279.753 -2.1582 
-123.268 264.116 -34.3997 
-121.748 274.863 -12.2413 
-121.679 278.426 -4.89377 
-123.085 258.485 -46.0089 
-124.556 257.163 -48.7352 
-122.929 263.481 -35.7072 
-123.421 268.974 -24.3818 
-124.035 251.58 -52.92 
-123.597 250.729 -52.92 
-125.786 252.702 -47.2486 
-125.786 249.917 -40.7341 
-125.786 250.384 -49.6584 
-125.786 250.517 -49.8358 
-125.786 251.683 -28.7797 
-125.786 252.669 -42.6491 
-125.786 252.124 -50.4303 
-125.786 248.61 -41.6947 
-125.786 251.22 -36.375 
-125.786 249.552 -41.2035 
-125.786 277.826 -3.1557 
-125.786 252.695 -28.8189 
-125.786 262.927 -2.04147 
-125.786 265.267 -1.28405 
-125.786 254.861 -27.2616 
-125.786 265.049 -11.7831 
-125.786 264.317 -7.55513 
-125.786 264.548 -19.8325 
-125.786 254.586 -2.08899 
-125.786 269.498 -1.63219 
-125.786 258.954 -12.5838 
-125.786 256.419 -16.6224 
-125.786 271.026 -5.10928 
-125.786 264.472 -27.6283 
-125.786 258.039 -46.6865 
-125.786 258.615 -2.00201 
-125.786 254.177 -2.11912 
-125.786 273.361 -7.84653 
-125.786 258.86 -38.5243 
-125.786 252.652 -0.316592 
-125.786 252.158 -9.25873 
-125.786 259.604 -1.60005 
-125.786 254.68 -40.9944 
-125.786 253.95 -3.25062 
-125.786 253.664 -32.0385 
-125.786 258.405 -25.2739 
-125.786 255.082 -9.21461 
-125.786 258.401 -40.5996 
-125.786 254.097 -0.522469 
-125.786 254.591 -29.114 
-125.786 252.453 -12.0623 
-125.786 263.065 -13.5736 
-125.786 258.024 -6.82987 
-125.786 270.591 -3.46818 
-125.786 253.924 -30.7943 
-125.786 259.617 -5.05405 
-125.786 271.505 -9.16021 
-125.786 254.145 -24.0868 
-125.786 267.001 -18.4319 
-125.786 261.848 -7.94136 
-125.786 250.972 -14.4895 
-125.786 258.998 -23.6819 
-125.786 263.175 -35.4673 
-125.786 274.856 -6.01969 
-125.786 263.236 -18.2741 
-125.786 271.492 -14.7915 
-125.786 269.374 -3.26663 
-125.786 263.559 -23.7676 
-125.786 254.19 -11.6203 
-121.466 272.636 -9.09685 
-121.466 262.575 -11.3946 
-121.466 254.591 -17.1117 
-121.466 262.342 -16.2365 
-121.466 269.653 -3.00399 
-121.466 265.277 -12.6832 
-121.466 257.888 -24.6448 
-121.466 257.992 -21.2346 
-121.466 253.493 -36.3619 
-121.466 250.23 -10.866 
-121.466 264.069 -8.79568 
-121.466 267.382 -4.53975 
-121.466 258.095 -16.7041 
-121.466 249.886 -5.58099 
-121.466 250.553 -16.2152 
-121.466 256.551 -18.9109 
-121.466 257.214 -39.4204 
-121.466 257.711 -45.2796 
-121.466 276.06 -6.7816 
-121.466 272.432 -14.5531 
-121.466 251.791 -0.130909 
-121.466 256.674 -11.7304 
-121.466 252.44 -3.452 
-121.466 266.796 -24.6237 
-121.466 275.709 -4.19663 
-121.466 263.457 -14.99 
-121.466 269.611 -7.45757 
-121.466 267.846 -3.30551 
-121.466 253.6 -5.17845 
-121.466 254.649 -17.4186 
-121.466 267.274 -14.4455 
-121.466 255.08 -7.30763 
-121.466 259.001 -19.4573 
-121.466 255.379 -26.742 
-121.466 262.492 -34.383 
-121.466 259.718 -17.0565 
-121.466 259.872 -36.4332 
-121.466 255.076 -12.9329 
-121.466 265.143 -26.855 
-121.466 253.731 -20.2072 
-121.466 259.593 -11.7062 
-121.466 260.889 -40.5874 
-121.466 273.831 -9.28078 
-121.466 262.862 -14.1771 
-121.466 256.38 -1.02281 
-121.466 264.949 -21.7219 
-121.466 257.966 -22.8665 
-121.466 258.962 -36.3106 
-121.466 250.959 -24.801 
-121.466 250.665 -44.846 
-121.466 250.952 -26.018 
-121.466 252.756 -48.8967 
-121.466 249.554 -15.5081 
-121.466 250.124 -45.1717 
-121.466 249.197 -50.1648 
-121.466 248.933 -30.7244 
-121.466 250.103 -22.7945 
-121.466 250.527 -36.5158 
-140.4 243.531 -54.9442 
-140.4 244.397 -53.3942 
-140.4 249.726 -48.9144 
-140.4 244.509 -55.1224 
-140.4 249.909 -51.2301 
-140.4 245.911 -54.6946 
-140.4 244.622 -44.5729 
-140.4 244.725 -51.2736 
-140.4 248.893 -40.7236 
-140.4 243.944 -41.9483 
-140.4 244.732 -50.2527 
19.7571 245.288 -56.6665 
49.8546 242.431 -56.6665 
102.486 250.555 -56.6665 
106.691 246.797 -56.6665 
107.503 241.824 -56.6665 
120.1 252.033 -56.6665 
110.88 247.401 -56.6665 
67.2528 247.164 -56.6665 
5.56639 244.12 -56.6665 
-52.1711 242.414 -56.6665 
136.901 249.487 -56.6665 
-69.9639 243.811 -56.6665 
119.113 247.162 -56.6665 
-136.332 241.742 -56.6665 
52.547 247.076 -56.6665 
-107.147 242.482 -56.6665 
112.722 244.189 -56.6665 
-62.3852 244.074 -56.6665 
-84.1636 243.533 -56.6665 
103.869 248.062 -56.6665 
-63.0883 242.758 -56.6665 
88.5626 245 -56.6665 
3.52628 243.763 -56.6665 
70.3519 243.12 -56.6665 
53.769 248.777 -56.6665 
-46.1547 244.136 -56.6665 
33.3637 242.599 -56.6665 
84.8635 244.484 -56.6665 
-62.0328 242.071 -56.6665 
-29.1641 244.568 -56.6665 
137.066 249.243 -56.6665 
-49.458 242.533 -56.6665 
10.8575 247.873 -56.6665 
-50.8825 242.73 -56.6665 
101.931 242.616 -56.6665 
50.2422 247.22 -56.6665 
138.871 251.996 -56.6665 
22.5321 242.079 -56.6665 
-60.8763 242.997 -56.6665 
-65.7865 243.436 -56.6665 
23.064 247.505 -56.6665 
131.313 247.146 -56.6665 
120.35 245.285 -56.6665 
63.5149 247.482 -56.6665 
81.6382 246.367 -56.6665 
-82.3328 243.364 -56.6665 
-0.975159 245.922 -56.6665 
5.95255 246.578 -56.6665 
72.9897 249.998 -56.6665 
-23.4548 245.955 -56.6665 
6.59666 244.564 -56.6665 
18.3045 247.367 -56.6665 
129.497 242.659 -56.6665 
-49.7862 242.584 -56.6665 
-7.94291 242.509 -56.6665 
-47.7226 244.924 -56.6665 
117.022 249.911 -56.6665 
-6.50666 243.061 -56.6665 
131.731 245.6 -56.6665 
133.532 249.018 -56.6665 
47.4582 242.685 -56.6665 
63.9276 249.445 -56.6665 
78.6107 249.384 -56.6665 
33.187 243.542 -56.6665 
109.882 251.683 -56.6665 
39.4823 243.76 -56.6665 
83.3729 246.22 -56.6665 
130.684 245.404 -56.6665 
24.3925 245.593 -56.6665 
131.189 245.013 -56.6665 
85.81 245.662 -56.6665 
109.266 249.014 -56.6665 
82.8131 241.684 -56.6665 
-126.732 241.793 -56.6665 
-7.9474 244.473 -56.6665 
88.879 248.368 -56.6665 
-4.609 242.273 -56.6665 
87.9828 244.842 -56.6665 
87.6335 244.97 -56.6665 
-62.6743 243.984 -56.6665 
81.9704 247.545 -56.6665 
8.08943 243.966 -56.6665 
46.7243 244.32 -56.6665 
-29.911 242.654 -56.6665 
125.778 243.987 -56.6665 
51.5499 249.425 -56.6665 
-39.3054 242.604 -56.6665 
-63.5278 244.246 -56.6665 
121.856 247.907 -56.6665 
-35.9614 244.153 -56.6665 
20.873 248.313 -56.6665 
111.201 244.389 -56.6665 
113.764 245.609 -56.6665 
1.19521 248.105 -56.6665 
-54.2027 246.934 -56.6665 
-139.177 245.661 -56.6665 
-133.875 248.641 -56.6665 
31.4279 253.386 -56.6665 
-23.2022 252.587 -56.6665 
-0.261246 253.094 -56.6665 
-103.932 251.18 -56.6665 
-44.2071 251.916 -56.6665 
-111.149 242.994 -56.6665 
14.4934 252.066 -56.6665 
-62.2431 252.495 -56.6665 
-39.0861 248.123 -56.6665 
-18.0659 249.723 -56.6665 
-54.5856 247.512 -56.6665 
-98.2588 252.364 -56.6665 
72.0965 252.879 -56.6665 
-102.658 247.964 -56.6665 
59.7056 252.855 -56.6665 
-101.85 248.906 -56.6665 
66.8178 251.576 -56.6665 
-13.6679 247.076 -56.6665 
-82.8621 249.54 -56.6665 
-62.7335 249.65 -56.6665 
-41.43 250.193 -56.6665 
-27.3064 250.655 -56.6665 
81.6108 252.772 -56.6665 
-65.697 248.047 -56.6665 
-8.07198 249.923 -56.6665 
-81.5182 253.175 -56.6665 
-82.0811 252.789 -56.6665 
-3.7733 250.733 -56.6665 
-97.5489 251.141 -56.6665 
21.2668 248.557 -56.6665 
-89.6643 246.027 -56.6665 
-4.92955 250.89 -56.6665 
-134.556 252.093 -56.6665 
43.4991 249.785 -56.6665 
-4.14612 251.847 -56.6665 
-123.411 253.363 -56.6665 
-135.937 250.16 -56.6665 
23.461 252.143 -56.6665 
-126.803 244.458 -56.6665 
1.23225 247.973 -56.6665 
-92.8353 243.92 -56.6665 
82.0397 252.352 -56.6665 
-35.1828 251.576 -56.6665 
-106.044 245.781 -56.6665 
-46.7817 247.648 -56.6665 
30.1392 251.961 -56.6665 
-35.507 250.971 -56.6665 
-107.294 248.964 -56.6665 
-122.666 251.094 -56.6665 
-79.5951 248.894 -56.6665 
-65.4749 250.683 -56.6665 
127.057 253.388 -56.6665 
-115.754 253.025 -56.6665 
43.0812 251.287 -56.6665 
-87.6248 246.467 -56.6665 
-74.2433 253.361 -56.6665 
-84.2011 252.548 -56.6665 
67.3698 252.536 -56.6665 
-114.057 248.287 -56.6665 
-46.382 252.794 -56.6665 
45.6395 249.531 -56.6665 
-22.3691 249.858 -56.6665 
-105.71 249.475 -56.6665 
-58.9887 251.341 -56.6665 
-33.712 249.927 -56.6665 
26.0023 250.622 -56.6665 
-111.942 249.365 -56.6665 
-139.164 250.962 -56.6665 
-50.8787 252.513 -56.6665 
40.4928 252.687 -56.6665 
-50.3445 246.776 -56.6665 
-4.61761 248.201 -56.6665 
-131.131 252.484 -56.6665 
-92.5631 251.126 -56.6665 
-124.005 249.349 -56.6665 
-9.52438 248.458 -56.6665 
-130.779 249.827 -56.6665 
-107.967 249.959 -56.6665 
-91.5254 244.104 -56.6665 
-139.554 243.613 -56.6665 
-109.474 246.948 -56.6665 
-30.9867 249.375 -56.6665 
36.5807 253.085 -56.6665 
11.2914 253.255 -56.6665 
-100.558 252.089 -56.6665 
-30.4427 246.281 -56.6665 
-10.1878 251.913 -56.6665 
-99.692 249.828 -56.6665 
-53.9732 246.341 -56.6665 
-60.8365 246.833 -56.6665 
42.8834 253.397 -52.8018 
136.581 253.397 -43.8726 
107.556 253.397 -49.9047 
104.155 253.397 -47.5821 
48.3266 253.397 -49.8595 
117.352 253.397 -51.397 
-33.8076 253.397 -50.6639 
-89.1935 253.397 -54.2786 
71.7456 253.397 -46.5898 
48.5507 253.397 -47.998 
79.3075 253.397 -48.4318 
-5.01589 253.397 -54.9925 
-101.401 253.397 -55.6981 
132.155 253.397 -46.8956 
-43.0427 253.397 -53.6203 
100.322 253.397 -49.3986 
100.305 253.397 -51.6752 
72.345 253.397 -53.1863 
125.527 253.397 -46.9669 
-37.8392 253.397 -51.7635 
30.748 253.397 -53.3597 
74.2928 253.397 -56.6276 
-85.3194 253.397 -56.5762 
80.7538 253.397 -55.8067 
54.2283 253.397 -51.0097 
-28.5401 253.397 -52.7061 
68.045 253.397 -52.0195 
92.4298 253.397 -43.3375 
117.944 253.397 -46.6018 
88.9643 253.397 -56.0068 
62.0412 253.397 -47.7277 
-29.0059 253.397 -52.3082 
23.0601 253.397 -51.3458 
87.1187 253.397 -53.9241 
95.4559 253.397 -53.8187 
25.4099 253.397 -52.1673 
111.01 253.397 -47.0696 
83.0202 253.397 -52.7829 
-30.9721 253.397 -54.4829 
94.1287 253.397 -44.9024 
112.989 253.397 -43.0305 
79.6648 253.397 -48.0422 
69.3185 253.397 -45.801 
119.658 253.397 -43.2468 
111.154 253.397 -54.7403 
136.557 253.397 -45.701 
23.7413 253.397 -47.8233 
106.044 253.397 -48.3241 
-55.0437 253.397 -55.7219 
-1.05037 253.397 -55.8651 
45.1074 253.397 -54.6795 
96.9443 253.397 -56.3188 
53.1848 253.397 -56.4067 
-15.5311 253.397 -52.3029 
-83.8896 253.397 -56.3533 
63.3365 253.397 -50.1801 
-28.0989 253.397 -51.605 
90.6359 253.397 -51.6525 
12.8095 253.397 -49.7048 
111.155 253.397 -43.8962 
24.9674 253.397 -51.323 
-26.3699 253.397 -55.3582 
41.4649 253.397 -53.4878 
71.258 253.397 -46.9916 
-4.36535 253.397 -49.8317 
-45.6464 253.397 -54.4719 
78.6166 253.397 -54.9437 
113.18 253.397 -46.266 
13.8452 253.397 -49.0416 
98.4844 253.397 -55.6881 
5.12799 253.397 -55.4656 
-81.1929 253.397 -53.7749 
108.211 253.397 -52.0581 
5.49583 253.397 -50.9774 
79.9462 253.397 -52.6773 
96.9598 253.397 -50.8185 
14.2072 253.397 -48.6834 
-81.4342 253.397 -54.0837 
8.52138 253.397 -54.8132 
120.791 253.397 -44.8697 
129.306 253.397 -43.8555 
129.556 253.397 -51.5666 
106.44 253.397 -50.728 
102.639 253.397 -43.2065 
-32.4079 253.397 -54.0334 
90.1393 253.397 -53.7982 
118.246 253.397 -51.5423 
33.6307 253.397 -55.1799 
-62.1659 253.397 -54.5508 
99.4949 253.397 -55.2728 
78.3153 253.397 -52.7997 
36.2643 253.397 -46.8891 
-75.9857 253.397 -53.1417 
50.4261 253.397 -50.8484 
-116.053 253.397 -55.9936 
-110.836 253.397 -55.7893 
109.576 253.397 -45.6066 
140.16 253.397 -41.4998 
-119.211 253.397 -56.1452 
87.6203 253.397 -49.0336 
-51.4544 253.397 -52.5011 
-50.5364 253.397 -55.0941 
-97.426 253.397 -55.3521 
6.44395 253.397 -48.8167 
77.3697 253.397 -46.9695 
-56.5654 253.397 -54.0019 
113.421 253.397 -52.8496 
139.89 253.397 -53.7166 
76.2427 253.397 -50.502 
23.4893 253.397 -53.3808 
3.16502 253.397 -54.1663 
-83.7623 253.397 -54.0886 
108.247 253.397 -51.1995 
7.79042 253.397 -53.0449 
-9.96429 253.397 -53.193 
108.637 253.397 -52.5511 
93.6915 253.397 -52.7224 
89.1909 253.397 -48.6751 
-96.1266 253.397 -55.2784 
121.708 253.397 -42.0303 
111.905 253.397 -48.3319 
85.396 253.397 -49.215 
-79.1592 253.397 -53.8452 
105.557 253.397 -56.6118 
79.1968 253.397 -50.4519 
125.862 253.397 -49.5157 
92.6723 253.397 -43.2764 
56.8363 253.397 -52.2006 
33.8681 253.397 -55.8308 
-6.62843 253.397 -48.5948 
-38.1339 253.397 -48.0263 
-121.23 253.397 -53.5899 
-47.547 253.397 -49.5159 
-116.013 253.397 -46.2911 
-100.828 253.397 -43.4282 
-60.353 253.397 -49.4398 
-86.0598 253.397 -50.6453 
68.1976 253.397 -41.5532 
-111.644 253.397 -54.9173 
47.9889 253.397 -44.9825 
-37.2539 253.397 -45.2229 
-106.95 253.397 -43.8329 
-82.0745 253.397 -44.6202 
-97.7665 253.397 -50.2182 
-130.58 253.397 -41.4961 
-32.3347 253.397 -49.4495 
-128.119 253.397 -47.1125 
-125.719 253.397 -45.7763 
-50.5089 253.397 -45.4474 
-90.1573 253.397 -53.0041 
-36.3125 253.397 -41.665 
-47.1936 253.397 -46.4824 
-75.4347 253.397 -41.2868 
-34.0479 253.397 -47.9434 
1.05545 253.397 -41.911 
-54.1901 253.397 -50.938 
102.073 253.397 -41.8007 
55.1455 253.397 -42.0668 
13.7603 253.397 -47.7143 
-87.5909 253.397 -41.5855 
26.9463 253.397 -45.2864 
-87.122 253.397 -48.7302 
80.7665 253.397 -43.1792 
-49.2073 253.397 -43.7421 
-83.5254 253.397 -41.8493 
-117.566 253.397 -50.3686 
-15.5573 253.397 -43.9355 
-103.641 253.397 -49.6901 
-137.675 253.397 -48.6319 
-98.8889 253.397 -45.406 
13.7533 253.397 -40.7137 
49.5948 253.397 -40.5777 
-116.161 253.397 -47.4142 
38.8385 253.397 -43.1761 
-17.6901 253.397 -44.2583 
-133.701 253.397 -42.3216 
-120.535 253.397 -42.1228 
-74.2627 253.397 -47.102 
38.5299 253.397 -45.278 
-99.4215 253.397 -52.2404 
-32.5715 253.397 -44.0878 
47.0307 253.397 -41.6432 
25.1079 253.397 -44.8586 
-5.21249 253.397 -42.4008 
-48.7811 253.397 -43.0663 
67.1001 253.397 -44.171 
44.8275 253.397 -41.693 
-62.3157 253.397 -48.4894 
-69.7971 253.397 -41.8754 
-5.38921 253.397 -42.1456 
41.2289 253.397 -43.7098 
-31.6678 253.397 -44.2766 
-43.4983 253.397 -44.6958 
-6.99606 253.397 -46.0103 
-17.8652 253.397 -44.664 
-126.084 253.397 -42.5241 
-80.5427 253.397 -40.8051 
-118.725 253.397 -48.3118 
-119.174 253.397 -46.9645 
-60.6553 253.397 -41.9081 
-103.29 253.397 -51.0876 
7.95168 253.397 -46.1006 
-1.69247 253.397 -44.1687 
29.5148 253.397 -45.7585 
-112.004 253.397 -48.5381 
-105.901 253.397 -43.8223 
41.1091 253.397 -40.6733 
11.3383 253.397 -42.1825 
31.8327 253.397 -42.0143 
11.8759 253.397 -45.2464 
-129.495 253.397 -41.2113 
-52.6096 253.397 -50.0372 
-75.5948 253.397 -46.893 
103.668 253.397 -40.6702 
-68.0832 253.397 -50.3496 
-135.388 253.397 -42.0057 
-122.44 253.397 -43.1122 
10.8982 253.397 -45.2993 
-85.2103 253.397 -46.7812 
-48.526 253.397 -40.713 
-65.7789 253.397 -48.8941 
24.6292 253.397 -44.4001 
-126.021 253.397 -48.8945 
-21.3063 253.397 -44.9772 
-8.20158 253.397 -48.5135 
8.50497 253.397 -46.653 
-37.2492 253.397 -42.3795 
-70.0841 253.397 -47.5792 
-44.232 253.397 -48.064 
-132.451 253.397 -55.2731 
-109.265 253.397 -54.2167 
-132.2 253.397 -54.3269 
42.0697 253.397 -45.3559 
58.2234 253.397 -43.2154 
-76.5302 253.397 -46.547 
-73.5325 253.397 -50.7831 
11.0085 253.397 -44.0121 
96.1191 253.397 -41.8663 
-78.6738 253.397 -43.0726 
-81.3005 253.397 -51.6527 
89.643 253.397 -41.5366 
-28.4512 253.397 -48.0408 
-91.3769 253.397 -50.9094 
-97.9767 253.397 -52.7298 
-137.099 253.397 -45.8669 
-34.8657 253.397 -47.0358 
70.8783 253.397 -40.8523 
-30.1441 253.397 -45.2406 
-68.3878 253.397 -49.32 
-5.37338 253.397 -42.9813 
-31.765 253.397 -48.1218 
-43.3201 253.397 -42.3163 
-95.1113 253.397 -44.8724 
-95.3622 253.397 -48.1816 
-72.1276 253.397 -52.2465 
47.3629 253.397 -43.2473 
-85.1269 253.397 -45.1826 
94.2828 253.397 -40.7764 
59.6978 246.764 -40.5335 
-90.7289 252.468 -40.5335 
12.7276 247.439 -40.5335 
70.9159 251.278 -40.5335 
-61.243 250.893 -40.5335 
47.6784 247.292 -40.5335 
97.439 245.215 -40.5335 
65.3709 250.687 -40.5335 
64.2174 245.154 -40.5335 
83.9465 247.823 -40.5335 
48.3555 248.256 -40.5335 
138.735 244.389 -40.5335 
66.6692 250.923 -40.5335 
-53.8954 250.645 -40.5335 
103.635 250.338 -40.5335 
116.684 246.526 -40.5335 
129.613 243.749 -40.5335 
-92.1815 252.515 -40.5335 
-92.8196 252.638 -40.5335 
-4.17176 250.417 -40.5335 
5.12952 249.598 -40.5335 
102.314 248.141 -40.5335 
26.3436 252.436 -40.5335 
26.4851 251.237 -40.5335 
-114.511 253.063 -40.5335 
92.4908 249.195 -40.5335 
72.9767 251.073 -40.5335 
119.977 253.319 -40.5335 
-101.233 251.897 -40.5335 
38.8518 252.958 -40.5335 
48.7805 248.502 -40.5335 
129.55 246.552 -40.5335 
119.083 246.26 -40.5335 
33.588 248.734 -40.5335 
44.0453 249.39 -40.5335 
126.359 250.067 -40.5335 
16.1173 249.539 -40.5335 
93.1604 247.491 -40.5335 
-51.6804 251.894 -40.5335 
-4.53875 248.342 -40.5335 
126.962 244.698 -40.5335 
-92.2346 251.846 -40.5335 
-14.7909 248.726 -40.5335 
-71.5698 252.972 -40.5335 
110.089 250.414 -40.5335 
-74.849 252.402 -40.5335 
108.233 244.282 -40.5335 
26.7831 253.144 -40.5335 
-93.0086 252.784 -40.5335 
123.732 250.174 -40.5335 
-71.9612 251.687 -40.5335 
-57.0615 251.273 -40.5335 
133.95 249.167 -40.5335 
-61.079 253.046 -40.5335 
-69.8979 252.92 -40.5335 
-51.323 251.753 -40.5335 
-16.1541 248.292 -40.5335 
26.1321 250.573 -40.5335 
66.5915 245.652 -40.5335 
36.2418 249.181 -40.5335 
35.8373 250.979 -40.5335 
69.291 247.566 -40.5335 
-29.3111 250.775 -40.5335 
-51.7663 250.046 -40.5335 
73.5692 249.958 -40.5335 
19.3995 247.315 -40.5335 
59.8402 251.921 -40.5335 
4.03761 253.028 -40.5335 
50.2034 251.726 -40.5335 
133.406 248.358 -40.5335 
-39.0252 251.963 -40.5335 
-72.3753 252.346 -40.5335 
0.599777 250.892 -40.5335 
-56.9469 252.567 -40.5335 
26.0677 248.803 -40.5335 
95.4638 250.069 -40.5335 
-63.2279 250.178 -40.5335 
122.536 250.971 -40.5335 
-6.8237 248.354 -40.5335 
96.0226 253.347 -40.5335 
80.3381 246.584 -40.5335 
49.6423 252.498 -40.5335 
83.3659 248.67 -40.5335 
52.912 246.461 -40.5335 
138.994 251.78 -40.5335 
92.7669 252.148 -40.5335 
24.2369 249.574 -40.5335 
108.683 247.339 -40.5335 
-47.8898 252.782 -40.5335 
89.0521 247.449 -40.5335 
30.161 253.37 -40.5335 
-80.1431 252.152 -40.5335 
59.1958 246.719 -40.5335 
92.433 244.438 -40.5335 
-20.3732 243.436 -40.5335 
-114.303 243.26 -40.5335 
84.8633 242.338 -40.5335 
-104.159 248.347 -40.5335 
-105.789 249.407 -40.5335 
-101.599 241.792 -40.5335 
-1.23256 241.692 -40.5335 
-26.111 244.453 -40.5335 
-0.88533 245.06 -40.5335 
14.7373 243.091 -40.5335 
-122.118 250.459 -40.5335 
-118.031 241.918 -40.5335 
-80.2011 247.789 -40.5335 
-63.6964 242.586 -40.5335 
-97.2626 242.284 -40.5335 
-107.226 244.983 -40.5335 
-107.992 246.603 -40.5335 
-106.425 249.843 -40.5335 
64.4466 243.41 -40.5335 
-99.0804 244.892 -40.5335 
-90.2116 242.224 -40.5335 
-136.541 244.48 -40.5335 
-19.7998 247.155 -40.5335 
-83.8532 249.496 -40.5335 
5.08066 243.594 -40.5335 
-43.0564 244.857 -40.5335 
-34.3544 245.747 -40.5335 
-40.368 244.365 -40.5335 
-116.86 242.302 -40.5335 
19.7813 245.533 -40.5335 
86.417 242.667 -40.5335 
13.6624 243.814 -40.5335 
-64.8499 243.472 -40.5335 
-13.2738 243.163 -40.5335 
-16.2725 246.023 -40.5335 
-26.6626 242.648 -40.5335 
17.3393 246.421 -40.5335 
-72.5427 249.477 -40.5335 
-93.9707 246.07 -40.5335 
-140.337 247.541 -40.5335 
-102.783 245.846 -40.5335 
-3.16745 245.348 -40.5335 
12.8909 244.224 -40.5335 
62.5976 244.593 -40.5335 
-90.9038 247.226 -40.5335 
-134.256 245.325 -40.5335 
-46.9104 242.89 -40.5335 
-61.2461 247.67 -40.5335 
-134.018 251.978 -40.5335 
86.0027 243.173 -40.5335 
-37.8566 245.495 -40.5335 
-114.396 250.512 -40.5335 
-69.2019 250.238 -40.5335 
-72.2536 243.397 -40.5335 
-8.03708 241.767 -40.5335 
-46.3442 243.311 -40.5335 
-133.834 251.857 -40.5335 
-63.3013 247.716 -40.5335 
109.595 242.513 -40.5335 
-96.2305 250.373 -40.5335 
-33.1382 248.18 -40.5335 
-56.8613 243.672 -40.5335 
-49.8126 241.707 -40.5335 
-138.192 248.97 -40.5335 
52.1761 242.971 -40.5335 
-113.785 249.163 -40.5335 
-52.5069 245.058 -40.5335 
-21.3192 245.012 -40.5335 
-107.969 244.489 -40.5335 
-48.0252 244.685 -40.5335 
-127.056 252.236 -40.5335 
-138.832 251.48 -40.5335 
-118.975 246.162 -40.5335 
-85.4442 247.267 -40.5335 
-74.7121 243.114 -40.5335 
-103.032 242.535 -40.5335 
18.8458 243.423 -40.5335 
9.44757 246.178 -40.5335 
-56.2888 244.382 -40.5335 
-18.6634 241.885 -40.5335 
-122.533 249.648 -40.5335 
-67.0453 246.14 -40.5335 
-116.122 246.117 -40.5335 
-135.346 252.881 -40.5335 
-8.52379 242.994 -40.5335 
-68.9486 247.115 -40.5335 
-74.5127 241.994 -40.5335 
45.3131 244.734 -40.5335 
-123.667 242.429 -40.5335 
-127.605 245.016 -40.5335 
-86.112 248.498 -40.5335 
-135.458 244.073 -40.5335 
-21.2768 248.385 -40.5335 
-10.005 241.646 -45.1662 
103.745 241.646 -54.5561 
62.8617 241.646 -44.5296 
70.286 241.646 -44.6461 
50.9972 241.646 -43.4602 
17.4078 241.646 -46.5474 
-27.0854 241.646 -40.9259 
-7.14167 241.646 -43.0459 
10.5743 241.646 -46.8518 
-82.0956 241.646 -43.3234 
83.1114 241.646 -51.8663 
-53.4308 241.646 -45.3056 
72.5797 241.646 -50.451 
57.6598 241.646 -46.2756 
34.0072 241.646 -40.6402 
70.413 241.646 -41.0479 
8.08059 241.646 -47.7882 
88.6924 241.646 -45.6352 
52.8483 241.646 -49.2851 
31.2643 241.646 -41.5538 
-29.0121 241.646 -41.3947 
-106.97 241.646 -41.8278 
-56.1363 241.646 -41.9865 
72.5371 241.646 -47.2888 
109.744 241.646 -49.2176 
-29.1884 241.646 -43.3162 
10.9116 241.646 -44.6551 
-69.7899 241.646 -44.0667 
114.929 241.646 -47.5425 
121.525 241.646 -44.7629 
106.908 241.646 -50.4835 
-115.216 241.646 -41.165 
115.063 241.646 -41.2914 
29.4943 241.646 -44.162 
63.8845 241.646 -51.4322 
86.5051 241.646 -46.4985 
-21.7296 241.646 -42.6742 
137.169 241.646 -42.9046 
101.568 241.646 -47.6831 
-49.9007 241.646 -43.4554 
120.705 241.646 -44.9142 
53.1132 241.646 -51.2268 
-18.819 241.646 -44.5349 
134.623 241.646 -41.9 
139.406 241.646 -54.5556 
100.7 241.646 -45.3891 
67.3377 241.646 -51.4341 
110.61 241.646 -40.9655 
-1.42026 241.646 -42.2414 
-41.0037 241.646 -44.0519 
-61.0296 241.646 -44.2943 
-4.64571 241.646 -44.2101 
39.984 241.646 -41.5636 
103.562 241.646 -44.3852 
64.5199 241.646 -41.371 
-10.2592 241.646 -41.9735 
96.2068 241.646 -44.2302 
-14.5374 241.646 -47.2278 
-3.30215 241.646 -46.6515 
28.7545 241.646 -43.4696 
1.79626 241.646 -41.0411 
15.595 241.646 -46.9585 
119.534 241.646 -51.3342 
-138.046 241.646 -40.5351 
113.212 241.646 -51.4242 
-44.1541 241.646 -45.5435 
17.9004 241.646 -49.4347 
-68.381 241.646 -43.1432 
82.099 241.646 -51.0745 
89.3064 241.646 -43.2766 
68.1932 241.646 -50.5595 
-49.2945 241.646 -45.1818 
58.4822 241.646 -47.4034 
14.4741 241.646 -42.5568 
63.5435 241.646 -43.1671 
49.1253 241.646 -42.8501 
122.694 241.646 -51.8049 
-1.15163 241.646 -44.418 
-50.202 241.646 -45.2128 
52.0227 241.646 -42.8412 
37.8145 241.646 -46.1798 
21.4456 241.646 -42.6609 
-70.2515 241.646 -42.4245 
107.237 241.646 -50.0222 
125.468 241.646 -47.4636 
122.469 241.646 -42.0588 
68.5564 241.646 -47.9895 
110.488 241.646 -53.6374 
138.007 241.646 -44.2982 
77.0434 241.646 -44.6844 
102.801 241.646 -52.6876 
47.15 241.646 -44.3379 
106.697 241.646 -42.9227 
37.4614 241.646 -42.4493 
-75.7867 241.646 -41.9855 
72.2705 241.646 -40.8079 
135.601 241.646 -45.2139 
140.043 241.646 -44.0926 
26.0701 241.646 -45.0603 
-44.4314 241.646 -43.6217 
-34.2699 241.646 -46.2441 
14.5318 241.646 -47.5195 
86.9175 241.646 -46.6023 
-82.0071 241.646 -40.7376 
135.358 241.646 -45.8679 
134.976 241.646 -43.6202 
74.9218 241.646 -46.216 
53.4557 241.646 -43.3174 
117.682 241.646 -49.416 
87.5621 241.646 -40.8971 
-42.8766 241.646 -42.9085 
54.8547 241.646 -44.8382 
136.99 241.646 -44.085 
98.8464 241.646 -50.8559 
57.9529 241.646 -50.1072 
139.395 241.646 -46.2454 
98.3719 241.646 -52.23 
94.247 241.646 -49.8249 
108.106 241.646 -51.3924 
102.951 241.646 -42.5191 
65.2585 241.646 -41.5823 
107.068 241.646 -54.2283 
49.3491 241.646 -41.3242 
100.478 241.646 -43.0661 
41.2502 241.646 -43.884 
47.6612 241.646 -49.1017 
137.234 241.646 -50.7157 
24.6968 241.646 -42.1744 
113.3 241.646 -48.518 
-14.489 241.646 -56.2832 
-87.2812 241.646 -52.7593 
-6.87471 241.646 -56.5057 
-0.262024 241.646 -53.2443 
65.877 241.646 -54.2642 
-116.153 241.646 -49.8744 
72.0471 241.646 -53.9895 
-67.5827 241.646 -54.0094 
-130.431 241.646 -51.5078 
-47.1366 241.646 -47.3393 
-27.5296 241.646 -49.3925 
8.13377 241.646 -55.0718 
-89.8233 241.646 -48.8083 
-129.007 241.646 -46.3169 
16.4987 241.646 -52.2805 
-135.468 241.646 -41.9123 
-53.3083 241.646 -52.7245 
102.818 241.646 -55.6586 
-82.2033 241.646 -48.2647 
-48.6557 241.646 -52.4374 
-101.905 241.646 -48.1455 
-139.352 241.646 -52.8318 
-115.694 241.646 -42.6864 
-12.5428 241.646 -53.5297 
-118.371 241.646 -54.3777 
46.6703 241.646 -54.7483 
-45.1628 241.646 -51.6466 
-26.9492 241.646 -51.4801 
-99.6358 241.646 -54.5547 
82.9039 241.646 -53.6936 
-138.765 241.646 -45.8773 
-84.2353 241.646 -48.5785 
66.0232 241.646 -54.5951 
-135.821 241.646 -48.5698 
-89.489 241.646 -56.0737 
28.4607 241.646 -53.2985 
-56.9704 241.646 -48.5819 
-81.9727 241.646 -45.9138 
15.9875 241.646 -49.736 
-124.266 241.646 -55.6131 
-122.594 241.646 -51.811 
-105.464 241.646 -48.529 
-48.8449 241.646 -46.7107 
-80.2285 241.646 -52.1439 
-65.7552 241.646 -51.2221 
-19.8431 241.646 -50.1679 
-108.214 241.646 -47.1928 
92.2115 241.646 -55.13 
-58.4445 241.646 -51.2184 
-84.731 241.646 -47.1772 
-111.035 241.646 -54.8887 
-79.0949 241.646 -47.8416 
-139.334 241.646 -53.835 
-123.342 241.646 -41.6957 
-66.0647 241.646 -53.0622 
-91.4141 241.646 -49.8338 
-45.8242 241.646 -45.9721 
-4.14394 241.646 -56.1087 
31.27 241.646 -55.393 
-133.373 241.646 -44.0326 
-90.6223 241.646 -50.1346 
4.18219 241.646 -55.3382 
22.6291 241.646 -56.4796 
71.0402 241.646 -54.3 
-113.773 241.646 -50.9442 
-112.737 241.646 -48.3614 
60.4799 241.646 -54.4897 
-138.722 241.646 -53.6488 
-130.514 241.646 -56.3726 
107.875 241.646 -54.7998 
-95.6705 241.646 -52.6037 
-36.6066 241.646 -49.1098 
-69.2428 241.646 -50.5329 
-34.2806 241.646 -49.4066 
-6.80797 241.646 -53.9758 
-109.959 241.646 -55.5848 
-75.4934 241.646 -47.2584 
-74.5938 241.646 -54.0675 
-119.091 241.646 -56.6201 
-96.1343 241.646 -53.293 
-31.9949 241.646 -53.7267 
-28.0245 241.646 -50.4656 
-117.078 241.646 -46.5342 
-119.862 241.646 -44.2466 
-47.0191 241.646 -53.8932 
-129.313 241.646 -44.7483 
-123.866 241.646 -41.6865 
6.64502 241.646 -49.0317 
-120.814 241.646 -47.9783 
-111.937 241.646 -46.9071 
-135.522 241.646 -42.8927 
-128.036 241.646 -52.4726 
10.4071 241.646 -50.0022 
61.2562 241.646 -52.7507 
14.0301 241.646 -50.271 
-133.548 241.646 -47.1965 
-63.8613 241.646 -52.4994 
-115.623 241.646 -53.9656 
31.8996 241.646 -50.8671 
-74.8798 241.646 -51.8683 
-69.5965 241.646 -49.5028 
-134.114 241.646 -52.6097 
-34.8435 241.646 -51.6909 
30.8614 241.646 -55.5602 
-11.3083 241.646 -50.0705 
-114.347 241.646 -47.8891 
-137.293 241.646 -43.1635 
-60.6243 241.646 -55.006 
-92.4915 241.646 -47.7312 
-91.2156 241.646 -54.4609 
-50.3598 241.646 -53.3153 
-19.9417 241.646 -50.6322 
-7.76505 241.646 -49.9559 
29.2252 241.646 -55.3778 
14.8106 241.646 -52.8774 
-117.434 241.646 -46.8978 
-68.4903 241.646 -52.3382 
-13.4826 241.646 -51.6597 
82.1557 241.646 -55.2376 
-82.1139 241.646 -55.3535 
-57.959 241.646 -51.5825 
-84.8811 241.646 -47.9368 
-38.9133 241.646 -55.9464 
0.0548401 241.646 -49.1575 
-92.4787 241.646 -55.3602 
-82.3061 241.646 -49.0501 
39.3835 241.646 -54.3039 
-112.306 241.646 -44.0075 
-9.50945 241.646 -48.5838 
-162 271.99 -42.3277 
-162 272.045 -41.8951 
78.8474 267.979 -43.9318 
155.376 267.209 -43.5726 
-33.1933 266.879 -43.4185 
121.501 269.987 -44.8678 
13.1684 268.678 -44.2577 
147.711 271.392 -45.5233 
-48.4572 266.922 -43.4385 
86.8856 269.927 -44.8401 
63.9188 268.902 -44.3621 
120.286 270.909 -45.2979 
-138.73 266.991 -43.4706 
38.3599 267.751 -43.8252 
158.99 271.431 -45.5413 
70.4191 267.292 -43.6113 
69.7392 267.417 -43.6693 
61.7915 268.088 -43.9823 
76.2822 269.284 -44.5403 
29.405 267.024 -43.4862 
20.5796 267.28 -43.6057 
81.2161 267.574 -43.7426 
-42.7569 267.237 -43.5857 
-0.625076 269.098 -44.4535 
14.4703 268.619 -44.2298 
-89.8205 267.286 -43.6082 
-51.3381 267.897 -43.8931 
137.21 267.463 -43.6909 
2.16109 267.508 -43.7117 
141.858 266.922 -43.4388 
-63.0362 267.265 -43.5987 
67.2554 269.251 -44.5246 
46.3414 269.634 -44.7034 
-142.882 266.911 -43.4335 
-31.8547 268.65 -44.2447 
2.97646 266.915 -43.4352 
136.618 270.094 -44.9179 
60.0318 269.142 -44.4741 
108.685 269.578 -44.6773 
142.566 271.178 -45.4232 
-75.64 267.365 -43.6454 
54.158 268.776 -44.303 
108.762 266.978 -43.465 
140.141 267.598 -43.7541 
86.0601 269.351 -44.5713 
-6.97635 267.803 -43.8494 
135.232 267.811 -43.8534 
113.863 268.323 -44.0922 
-27.7383 267.988 -43.9356 
96.225 267.943 -43.9146 
-80.3492 269.813 -44.7866 
-111.694 271.359 -45.5079 
-142.588 270.394 -45.0579 
45.3768 269.934 -44.8431 
-99.9287 271.275 -45.4686 
-107.668 269.096 -44.4523 
-8.24603 271.533 -45.5891 
26.1992 270.257 -44.9937 
52.9163 270.499 -45.1066 
-104.3 267.918 -43.903 
-45.1558 271.051 -45.3639 
-133.648 267.331 -43.6292 
-104.412 268.67 -44.254 
-127.782 269.169 -44.4865 
-143.675 267.3 -43.6147 
-144.889 270.301 -45.0145 
-24.8567 268.995 -44.4055 
-147.759 269.699 -44.7338 
-51.8683 269.038 -44.4253 
42.6309 270.111 -44.9256 
-31.5405 269.636 -44.7041 
-44.4443 270.753 -45.2253 
-122.735 271.259 -45.4612 
-105.916 271.249 -45.4564 
14.0192 271.081 -45.378 
-143.955 269.103 -44.4556 
-36.7691 269.172 -44.4879 
78.7569 270.472 -45.0941 
-127.313 268.924 -44.3722 
-111.112 270.471 -45.0934 
-156.249 269.85 -44.8042 
-149.887 270.965 -45.3242 
-153.832 270.326 -45.0261 
-123.897 268.699 -44.2673 
-42.1445 270.177 -44.9567 
-75.0052 271.371 -45.5134 
-96.1819 270.996 -45.3383 
-65.8046 269.306 -44.5502 
-124.21 270.784 -45.2398 
-74.8394 268.892 -44.3571 
-128.447 270.389 -45.0556 
-0.472305 269.775 -44.7693 
-155.55 268.647 -44.2432 
-34.8237 270.616 -45.1611 
25.2542 270.111 -44.9257 
-144.159 269.262 -44.53 
-16.8391 269.266 -44.5319 
36.3358 270.043 -44.8939 
127.469 272.139 -44.4928 
19.8563 272.587 -43.5324 
129.561 272.704 -43.2826 
140.649 271.786 -45.2496 
86.7827 272.303 -44.1411 
37.2663 272.287 -44.1752 
66.4929 272.155 -44.4593 
129.117 271.984 -44.826 
108.311 271.89 -45.0276 
121.454 272.169 -44.4284 
73.6105 273.004 -42.6375 
76.3688 271.825 -45.1664 
-96.7875 271.663 -45.513 
13.9684 272.132 -44.508 
40.4882 272.345 -44.0509 
92.4263 272.128 -44.5178 
45.6528 272.713 -43.2614 
158.106 272.389 -43.9579 
-58.4241 271.946 -44.9072 
128.328 271.819 -45.1787 
159.541 271.707 -45.4199 
61.7928 272.259 -44.2357 
-75.057 271.617 -45.613 
134.076 272.933 -42.7898 
-55.4087 272.021 -44.7462 
77.505 272.306 -44.1349 
72.682 272.503 -43.7131 
16.0105 271.881 -45.0462 
42.4664 272.174 -44.4189 
25.0616 272.009 -44.772 
37.548 272.45 -43.8262 
-149.745 271.669 -45.5012 
117.935 272.926 -42.8047 
121.446 271.982 -44.8302 
118.485 272.505 -43.7076 
110.412 271.643 -45.5573 
71.7619 272.502 -43.715 
-103.211 271.912 -44.9794 
-54.4689 272.072 -44.638 
91.7473 272.621 -43.4606 
151.725 272.068 -44.6458 
-128.448 273.255 -42.1009 
-40.2568 272.711 -43.2658 
-86.5992 272.72 -43.2474 
-20.6695 272.602 -43.501 
-59.5415 272.329 -44.0863 
-34.7808 272.683 -43.3267 
-48.2802 273.335 -41.9291 
-116.352 273.409 -41.7705 
-21.1722 272.941 -42.7734 
-64.7986 273.168 -42.2855 
-43.5146 272.539 -43.6351 
-10.0571 272.782 -43.1133 
-43.7294 272.801 -43.0734 
-54.0681 272.999 -42.6484 
-15.5611 272.7 -43.2904 
-40.4981 272.768 -43.1446 
-136.332 272.449 -43.8286 
-107.975 273.016 -42.6121 
-7.43187 272.744 -43.1951 
-82.5885 273.368 -41.8574 
-26.9909 273.015 -42.6149 
34.6213 273.472 -41.6346 
-86.178 272.857 -42.9527 
-71.9439 272.234 -44.2903 
-126.931 272.881 -42.9014 
-134.014 272.39 -43.955 
-115.725 272.612 -43.4787 
-161.617 272.114 -44.5462 
-79.8081 272.623 -43.4562 
-130.857 272.043 -44.6985 
-81.3312 272.965 -42.7214 
-1.43848 273.047 -42.5452 
-75.0661 272.767 -43.1465 
-144.492 272.833 -43.0039 
-141.127 272.261 -44.2326 
-88.4455 272.307 -44.1332 
119.977 273.339 -41.9191 
-160.829 272.59 -43.526 
-140.007 273.312 -41.9775 
-69.3496 272.663 -43.3701 
-33.8455 272.711 -43.2674 
-141.813 272.609 -43.4847 
-100.262 273.416 -41.4544 
129.348 270.462 -40.0769 
102.86 271.732 -40.6694 
114.245 272.142 -40.8606 
80.7377 273.052 -41.2848 
-22.5574 272.904 -41.2159 
13.5934 272.464 -41.0104 
101.335 270.602 -40.1422 
63.3022 270.322 -40.0117 
84.4129 270.986 -40.3212 
-63.0868 272.353 -40.9588 
-124.361 273.085 -41.3001 
80.7878 270.574 -40.1293 
95.5662 270.43 -40.0621 
-65.3654 272.588 -41.0684 
118.174 270.041 -39.8807 
-76.099 272.85 -41.1904 
30.4626 273.53 -41.5076 
-34.9094 273.416 -41.4545 
68.1348 271.851 -40.7246 
74.5834 272.221 -40.8971 
26.7358 271.379 -40.5044 
70.886 273.19 -41.3493 
-22.6876 272.537 -41.0444 
-143.943 273.266 -41.3847 
-30.5452 273.305 -41.4026 
-116.291 272.966 -41.2446 
118.193 271.334 -40.4837 
49.0322 270.745 -40.2092 
159.914 271.304 -40.4696 
60.0805 271.542 -40.5806 
-34.7651 273.304 -41.4023 
155.811 272.532 -41.0423 
60.9348 271.131 -40.3891 
16.1366 271.861 -40.7294 
134.142 270.706 -40.1907 
69.8193 272.958 -41.2409 
132.315 272.206 -40.8901 
159.721 270.18 -39.9454 
65.4084 270.901 -40.2816 
-3.83316 271.592 -40.6041 
86.5012 271.784 -40.6937 
146.265 271.894 -40.7449 
105.977 273.098 -41.3062 
-33.9071 271.738 -40.6721 
158.201 273.006 -41.2635 
111.913 273.488 -41.4882 
109.136 272.484 -41.0199 
-29.4787 270.707 -40.1914 
-127.018 268.858 -39.329 
1.34167 270.38 -40.0387 
-111.322 272.335 -40.9505 
-136.335 271.008 -40.3315 
-110.077 271.197 -40.4199 
-138.178 272.882 -41.2055 
-62.6613 268.819 -39.3107 
-19.6216 270.229 -39.9682 
-112.276 270.03 -39.8757 
56.7851 269.625 -39.6867 
-104.246 271.699 -40.6538 
83.8139 269.765 -39.7518 
58.3176 270.256 -39.9811 
-136.206 270.348 -40.0236 
24.0761 269.037 -39.4125 
-15.5094 269.209 -39.4927 
13.7379 270.936 -40.2982 
-14.8873 269.698 -39.7208 
26.9327 269.837 -39.7854 
-131.355 272.026 -40.8062 
-150.116 269.702 -39.7224 
-27.9466 271.387 -40.5085 
-113.131 271.676 -40.6429 
-125.524 269.824 -39.7793 
37.3411 270.485 -40.0879 
-86.0381 269.094 -39.4392 
64.6304 270.108 -39.9121 
-55.7533 271.608 -40.6115 
-9.81253 268.782 -39.2933 
-131.938 271.084 -40.3669 
44.5663 269.405 -39.5842 
-86.4502 269.634 -39.6911 
-32.1649 269.854 -39.7934 
67.3212 269.718 -39.7299 
-108.025 271.287 -40.4619 
101.83 268.841 -39.3209 
-158.406 271.277 -40.4572 
-82.469 272.288 -40.9286 
121.124 269.009 -39.3993 
-134.46 270.271 -39.9878 
119.095 269.185 -39.4815 
-55.9846 268.847 -39.3237 
25.3465 269.551 -39.6524 
-146.62 270.712 -40.1933 
85.5118 269.156 -39.468 
-134.451 271.774 -40.6889 
-81.1563 272.162 -40.8699 
53.1268 268.291 -40.326 
-13.5431 268.229 -40.4583 
53.1439 268.642 -39.5737 
135.185 267.14 -42.7934 
-64.3634 268.59 -39.6839 
-107.079 268.749 -39.3427 
127.142 268.223 -40.4718 
-16.1767 268.052 -40.8389 
-1.99461 268.303 -40.3007 
-60.5398 268.239 -40.4373 
83.6254 268.44 -40.0069 
69.3081 268.599 -39.6652 
152.756 267.049 -42.989 
71.0262 268.074 -40.7917 
135.61 268.692 -39.4654 
115.748 267.973 -41.0074 
-64.7669 268.569 -39.7286 
92.9185 267.865 -41.2398 
-104.403 268.514 -39.8467 
120.763 267.397 -42.2417 
93.3739 268.653 -39.549 
91.913 267.87 -41.2291 
-6.13407 268.594 -39.6748 
-25.1834 268.771 -39.2959 
-24.368 268.471 -39.9399 
-37.5359 268.407 -40.0776 
128.58 267.562 -41.8881 
-114.327 268.587 -39.6915 
79.4828 268.216 -40.4859 
70.4997 268.039 -40.8651 
146.215 267.459 -42.1088 
95.8327 267.359 -42.3245 
-85.3107 268.406 -40.0795 
47.5409 268.309 -40.2873 
138.541 268.313 -40.2773 
151.414 268.028 -40.8898 
155.364 268.709 -39.4283 
141.105 267.859 -41.2508 
139.768 268.695 -39.4587 
45.5411 268.622 -39.6166 
50.7507 268.406 -40.0781 
83.3798 268.08 -40.7783 
-126.13 267.969 -41.0159 
-86.7084 267.732 -41.5233 
-30.0373 266.856 -43.402 
-59.4488 267.549 -41.9165 
-158.426 268.655 -39.5452 
-45.3543 267.994 -40.962 
-80.6381 267.88 -41.2067 
-74.2315 267.002 -43.09 
-38.4758 267.29 -42.473 
6.00879 266.864 -43.3861 
-151.566 267.776 -41.4308 
-75.7031 268.178 -40.5671 
109.059 266.882 -43.3482 
-135.238 267.994 -40.9617 
-94.7681 267.987 -40.9774 
-132.164 268.499 -39.8788 
-145.507 267.535 -41.9478 
-92.2057 268.094 -40.7477 
-33.5159 267.3 -42.4512 
-158.06 267.172 -42.7257 
-58.958 267.69 -41.6146 
-129.008 266.87 -43.3732 
74.9949 266.914 -43.2793 
-36.5827 267.073 -42.9365 
-85.0588 267.483 -42.0584 
-144.615 267.409 -42.2162 
-0.801163 267.093 -42.894 
-103.413 268.223 -40.4718 
-153.599 267.848 -41.2763 
-137.535 267.251 -42.5556 
-153.214 268.194 -40.5326 
-29.4747 267.969 -41.0152 
-72.1752 267.48 -42.0647 
7.4314 267.64 -41.7224 
-46.3395 267.712 -41.5679 
21.0045 267.649 -41.7013 
36.1375 266.966 -43.166 
-0.620804 267.086 -42.9097 
-158.416 267.899 -41.1663 
-142.849 267.732 -41.5232 
73.707 266.871 -43.3716 
26.5253 267.14 -42.7945 
138.196 283.012 -6.89119 
-112.148 283.239 -6.41699 
93.5247 283.299 -6.29255 
-42.423 283.017 -6.88172 
35.7868 284.008 -4.81131 
-124.217 284.178 -4.45591 
-121.695 285.034 -2.66668 
-165.209 284.469 -3.84749 
-124.464 283.795 -5.25646 
86.9877 283.392 -6.09649 
-26.4671 283.912 -5.01074 
-106.714 283.27 -6.35165 
-33.0897 284.208 -4.39218 
-78.2148 284.679 -3.40975 
125.254 283.121 -6.66444 
91.3216 282.874 -7.17977 
-107.503 284.974 -2.79293 
36.0108 283.594 -5.67471 
0.258896 284.334 -4.12979 
-137.067 285.82 -1.02513 
-107.504 283.626 -5.60841 
-144.82 283.999 -4.82969 
88.9736 283.153 -6.59604 
-96.0134 283.745 -5.36011 
78.2563 283.459 -5.95813 
-112.445 283.185 -6.53022 
142.831 282.84 -7.25155 
-53.7146 283.789 -5.26924 
-8.34928 282.878 -7.17107 
-24.4679 283.802 -5.24216 
-79.6258 284.656 -3.45803 
-148.316 282.983 -6.95232 
-106.512 285.143 -2.43977 
86.1882 282.823 -7.2867 
-116.586 284.138 -4.53895 
